ply
format ascii 1.0
element vertex 2131
property float32 x
property float32 y
property float32 z
end_header
-21.6385 44.8322 0.8669
-21.3284 12.1459 0.4311
-21.3176 16.8381 0.4759
-21.3271 8.1938 0.4025
-21.3314 4.6793 0.3859
-21.3325 1.3903 0.3789
-21.3337 -1.8346 0.3807
-7.3848 -3.0141 0.1427
-21.3374 -5.1458 0.3915
-21.3485 -17.5924 0.4976
-21.3359 -12.7423 0.4459
-21.2979 -23.7656 0.5753
6.6755 -37.8670 0.6967
6.7084 -19.8857 0.3800
6.7023 -12.9934 0.2644
6.7155 -9.2670 0.2066
6.7187 -6.8195 0.1725
6.7208 -3.5944 0.1366
6.6352 -4.9606 0.1489
6.7238 -1.2888 0.1220
6.7251 -0.2592 0.1196
6.7292 0.7591 0.1199
6.7223 -2.3798 0.1275
6.7306 1.8136 0.1231
6.7321 2.9585 0.1294
6.7338 4.2681 0.1399
6.7434 7.9390 0.1819
6.6628 10.7877 0.2210
6.6714 15.6734 0.2965
6.7226 26.1578 0.4697
6.6520 5.7848 0.1543
-23.1770 42.1487 0.8381
-21.3180 15.0732 0.4578
-34.7942 33.4909 0.8447
-21.3298 6.9203 0.3954
-21.3333 3.5054 0.3824
-21.3285 10.6894 0.4195
-21.3351 0.2561 0.3786
-21.3372 -6.3609 0.3976
-7.7143 -3.6373 0.1527
-21.3342 -2.9817 0.3835
-21.3496 -19.5851 0.5216
-21.3417 -14.3345 0.4617
-21.6308 -26.8799 0.6225
6.6220 -10.2406 0.3647
6.7176 -7.5842 0.3026
6.7202 -5.6038 0.2610
6.7201 -4.0666 0.2340
6.7218 -2.7892 0.2164
6.7232 -1.6629 0.2056
6.7246 -0.6177 0.2001
6.6421 0.3941 0.1967
6.7300 1.4353 0.2031
6.7315 2.5413 0.2120
6.7331 3.7826 0.2271
6.6560 5.1947 0.2479
6.7423 7.1333 0.2878
6.7456 9.7267 0.3466
6.7504 13.7804 0.4489
6.6661 21.2011 0.6497
6.7783 43.7317 1.2932
-21.6385 44.8324 1.4563
-30.4192 32.5614 1.3063
-21.3182 16.8387 0.7975
-21.3271 8.1939 0.6730
-21.3313 4.6794 0.6444
-21.3326 1.3904 0.6320
-21.3338 -1.8345 0.6343
-21.3372 -5.1457 0.6514
-21.3371 -8.7086 0.6852
-21.3284 12.1460 0.7217
-21.3486 -17.5923 0.8251
-21.2979 -23.7654 0.9532
-21.3362 -12.7424 0.7401
6.7083 -19.8852 0.6284
6.6752 -37.8651 1.1519
6.7154 -9.2668 0.3421
6.7186 -6.8194 0.2858
6.6351 -4.9605 0.2470
6.7207 -3.5943 0.2269
6.7223 -2.3798 0.2119
6.7237 -1.2888 0.2031
6.7022 -12.9931 0.4375
6.7251 -0.2592 0.1993
6.7292 0.7592 0.2001
6.7305 1.8136 0.2056
6.7320 2.9585 0.2165
6.7433 7.9390 0.3053
6.6519 5.7848 0.2587
6.6627 10.7876 0.3712
6.7337 4.2681 0.2343
6.6713 15.6732 0.4982
6.7226 26.1578 0.7894
-23.1769 42.1487 1.4075
-29.9569 39.1120 1.4432
-30.9944 29.8336 1.2618
-21.3280 10.6893 0.7019
-21.3185 15.0737 0.7669
-21.3352 0.2562 0.6312
-21.3342 -2.9816 0.6385
-21.3299 6.9204 0.6609
-21.3385 -10.0611 0.7018
-21.3371 -6.3608 0.6612
-21.3492 -19.5846 0.8646
-21.6307 -26.8797 1.0310
-21.3422 -14.3347 0.7661
-21.3332 3.5055 0.6384
6.6219 -10.2404 0.5092
6.7175 -7.5841 0.4227
6.7202 -5.6037 0.3647
6.7200 -4.0665 0.3270
6.7217 -2.7891 0.3026
6.7232 -1.6628 0.2876
6.7246 -0.6177 0.2801
6.6421 0.3941 0.2756
6.7300 1.4353 0.2846
6.7314 2.5413 0.2972
6.7330 3.7826 0.3186
6.6559 5.1947 0.3479
6.7422 7.1333 0.4041
6.7455 9.7266 0.4869
6.7503 13.7802 0.6307
6.6660 21.2007 0.9130
6.7780 43.7298 1.8174
-7.2357 48.5486 2.0158
-21.6385 44.8326 2.0461
-25.3388 36.9951 1.8443
-27.3143 29.2379 1.6470
-21.3187 16.8392 1.1194
-21.3283 12.1461 1.0125
-21.3266 8.1938 0.9436
-21.3312 4.6795 0.9032
-21.3328 1.3905 0.8853
-21.3339 -1.8344 0.8880
-21.3371 -5.1456 0.9114
-21.3375 -8.7086 0.9582
-21.3365 -12.7425 1.0346
-21.3488 -17.5923 1.1529
-21.2979 -23.7653 1.3312
-26.4404 -40.3713 2.0148
6.6749 -37.8634 1.6074
6.7081 -19.8846 0.8771
6.7021 -12.9928 0.6107
6.7153 -9.2667 0.4777
6.7186 -6.8192 0.3992
6.6351 -4.9604 0.3452
6.7206 -3.5943 0.3172
6.7222 -2.3797 0.2964
6.7237 -1.2888 0.2842
6.7250 -0.2592 0.2790
6.7291 0.7592 0.2803
6.7305 1.8136 0.2882
6.7320 2.9586 0.3036
6.7337 4.2681 0.3288
6.6518 5.7848 0.3631
6.7432 7.9389 0.4287
6.6626 10.7875 0.5214
6.6711 15.6730 0.7000
6.7225 26.1578 1.1094
-23.1768 42.1488 1.9774
-26.0020 33.9487 1.7593
-27.8752 26.8314 1.5932
-21.3190 15.0742 1.0763
-21.3276 10.6892 0.9845
-21.3300 6.9205 0.9266
-21.3331 3.5056 0.8945
-21.3354 0.2563 0.8840
-21.3343 -2.9816 0.8937
-21.3369 -6.3606 0.9250
-21.3388 -10.0611 0.9813
-21.3427 -14.3349 1.0707
-21.3489 -19.5842 1.2078
-21.6306 -26.8794 1.4397
6.6218 -10.2402 0.6538
6.7175 -7.5840 0.5428
6.7201 -5.6036 0.4685
6.7200 -4.0665 0.4202
6.7216 -2.7891 0.3889
6.7231 -1.6628 0.3698
6.7245 -0.6176 0.3601
6.6420 0.3941 0.3545
6.7299 1.4354 0.3662
6.7314 2.5413 0.3825
6.7330 3.7826 0.4102
6.6558 5.1947 0.4481
6.7421 7.1332 0.5205
6.7454 9.7265 0.6272
6.7502 13.7800 0.8127
6.6658 21.2002 1.1765
6.3277 40.8252 2.1866
0.1286 44.1957 2.3390
-6.0900 40.8620 2.1866
-13.0066 42.2246 2.3390
-18.4519 38.2303 2.2482
-22.2962 32.5530 2.0907
-24.4238 26.1441 1.8970
-21.3192 16.8397 1.4416
-21.3283 12.1461 1.3036
-21.3262 8.1937 1.2145
-21.3329 1.3906 1.1389
-21.3311 4.6795 1.1622
-21.3340 -1.8343 1.1419
-21.3380 -8.7087 1.2316
-21.3369 -5.1454 1.1717
-21.3369 -12.7426 1.3293
-21.2979 -23.7651 1.7097
-21.3489 -17.5923 1.4810
-17.9773 -39.3054 2.3183
-11.9349 -41.8030 2.3327
-5.5303 -43.2296 2.3390
-22.9770 -35.0831 2.2483
6.6746 -37.8616 2.0632
6.7080 -19.8841 1.1259
1.0297 -43.5671 2.3390
6.7019 -12.9925 0.7840
6.7152 -9.2665 0.6134
6.6350 -4.9604 0.4434
6.7185 -6.8191 0.5128
6.7206 -3.5942 0.4076
6.7222 -2.3797 0.3810
6.7250 -0.2591 0.3588
6.7236 -1.2887 0.3654
6.7319 2.9586 0.3908
6.7304 1.8136 0.3708
6.7336 4.2681 0.4233
6.6518 5.7848 0.4677
6.7291 0.7592 0.3606
6.6625 10.7874 0.6717
6.7225 26.1578 1.4297
6.7432 7.9389 0.5522
4.4425 43.9703 2.3390
-2.2163 44.1399 2.3390
-15.2266 41.4701 2.3390
6.6710 15.6728 0.9020
-19.7489 35.9149 2.1710
-8.2488 40.4788 2.1866
-21.3195 15.0746 1.3860
-24.0685 23.1674 1.7718
-23.0584 30.1056 2.0098
-21.3272 10.6890 1.2674
-21.3300 6.9206 1.1926
-21.3330 3.5057 1.1509
-21.3344 -2.9815 1.1492
-21.3368 -6.3605 1.1890
-21.3432 -14.3352 1.3756
-21.3355 0.2564 1.1371
-21.3486 -19.5838 1.5514
-21.6131 -37.1636 2.3052
-15.8980 -40.2837 2.3232
-21.3391 -10.0612 1.2611
-3.2288 -43.4604 2.3390
-21.6305 -26.8791 1.8489
-9.0919 -39.7200 2.1866
3.3398 -43.4520 2.3390
6.6217 -10.2400 0.7986
6.7174 -7.5839 0.6631
6.7200 -5.6035 0.5723
6.7199 -4.0664 0.5134
6.7216 -2.7890 0.4753
6.7231 -1.6627 0.4520
6.7245 -0.6176 0.4403
6.6420 0.3942 0.4335
6.7299 1.4354 0.4479
6.7313 2.5414 0.4680
6.7329 3.7826 0.5019
6.6558 5.1947 0.5483
6.7420 7.1332 0.6370
6.7453 9.7265 0.7678
6.7500 13.7799 0.9949
6.6656 21.1998 1.4404
5.1682 33.3447 2.1866
0.1050 36.0971 2.3390
-5.3208 35.7007 2.3390
-10.5648 34.2976 2.3260
-15.0590 31.2009 2.2462
-18.8389 27.5054 2.1624
-22.1459 23.7058 2.1053
-21.3282 12.1463 1.5950
-21.3258 8.1937 1.4858
-21.3310 4.6796 1.4215
-21.3331 1.3907 1.3927
-21.3341 -1.8342 1.3962
-21.3368 -5.1453 1.4323
-21.3384 -8.7088 1.5053
-21.3372 -12.7427 1.6245
-21.3197 16.8403 1.7643
-21.3490 -17.5923 1.8095
-21.2979 -23.7650 2.0887
-14.7675 -32.2874 2.3260
-19.4998 -29.7736 2.3307
-4.5284 -35.3975 2.3390
-9.1603 -32.0847 2.1866
0.8431 -35.6743 2.3390
6.7078 -19.8835 1.3751
5.7921 -32.8553 2.1866
6.7151 -9.2663 0.7493
6.7018 -12.9923 0.9576
6.6349 -4.9603 0.5418
6.7205 -3.5941 0.4980
6.7221 -2.3796 0.4656
6.7236 -1.2887 0.4467
6.7249 -0.2591 0.4387
6.7184 -6.8190 0.6264
6.7304 1.8136 0.4536
6.7318 2.9586 0.4781
6.7290 0.7592 0.4410
6.7335 4.2681 0.5180
6.6517 5.7847 0.5723
6.6625 10.7873 0.8223
6.7431 7.9388 0.6759
6.6709 15.6725 1.1042
3.6284 35.9132 2.3390
-1.8101 36.0516 2.3390
-6.7374 33.0619 2.1866
-12.2784 33.4406 2.3091
-16.4623 29.9381 2.2154
-20.0169 26.1347 2.1356
-22.6788 21.8299 2.0433
-21.3200 15.0751 1.6960
6.7225 26.1578 1.7504
-21.3267 10.6889 1.5507
-21.3301 6.9208 1.4588
-21.3357 0.2565 1.3905
-21.3345 -2.9814 1.4050
-21.3329 3.5057 1.4076
-21.3394 -10.0612 1.5413
-21.3366 -6.3604 1.4534
-21.3483 -19.5834 1.8953
-21.3437 -14.3354 1.6810
-20.9411 -26.0222 2.1866
-13.0547 -33.0789 2.3300
-17.8290 -30.6568 2.3227
-2.6438 -35.5868 2.3390
-7.4445 -32.5229 2.1866
2.7348 -35.5798 2.3390
6.6216 -10.2398 0.9436
6.7173 -7.5837 0.7836
6.7200 -5.6034 0.6764
6.7198 -4.0663 0.6068
6.7215 -2.7890 0.5619
6.7230 -1.6627 0.5343
6.7244 -0.6176 0.5206
6.6419 0.3942 0.5126
6.7298 1.4354 0.5298
6.7313 2.5414 0.5535
6.7328 3.7826 0.5937
6.6557 5.1947 0.6487
6.7420 7.1332 0.7537
6.7453 9.7264 0.9085
6.7499 13.7797 1.1773
6.6655 21.1994 1.7046
4.6712 30.1379 2.3390
0.0888 30.4995 2.3390
-4.4957 30.1649 2.3390
-8.3917 27.2432 2.1866
-12.8818 26.6900 2.2739
-16.5797 24.2072 2.2520
-20.6266 22.0797 2.3202
-21.3202 16.8408 2.0874
-21.3282 12.1463 1.8869
-21.3254 8.1936 1.7575
-21.3309 4.6797 1.6812
-21.3333 1.3908 1.6470
-21.3342 -1.8341 1.6508
-21.3367 -5.1452 1.6933
-21.3388 -8.7088 1.7794
-21.3376 -12.7428 1.9201
-19.7028 -21.9850 2.2833
-16.5617 -25.2873 2.3390
-21.3492 -17.5923 2.1385
-7.7532 -27.1561 2.1866
-12.5683 -27.4790 2.3390
0.7136 -30.1954 2.3390
-3.8329 -29.9609 2.3390
4.9025 -27.8090 2.1866
6.7017 -12.9920 1.1315
6.7151 -9.2662 0.8854
6.7183 -6.8189 0.7403
6.7077 -19.8829 1.6246
6.6349 -4.9602 0.6403
6.7221 -2.3796 0.5504
6.7205 -3.5941 0.5887
6.7235 -1.2887 0.5281
6.7249 -0.2591 0.5187
6.7289 0.7593 0.5216
6.7318 2.9586 0.5656
6.7303 1.8136 0.5365
6.7335 4.2681 0.6128
6.6516 5.7847 0.6772
6.7430 7.9388 0.7997
6.6624 10.7872 0.9730
6.6708 15.6723 1.3068
3.0658 30.3443 2.3390
7.0963 27.6126 2.1868
-1.5294 30.4611 2.3390
-10.4557 28.4767 2.3271
-14.1104 25.6611 2.2472
-18.0937 23.6238 2.2843
-5.7703 28.3166 2.2164
-20.5115 19.7439 2.1866
-21.3263 10.6888 1.8343
-21.3301 6.9209 1.7255
-21.3328 3.5058 1.6647
-21.3205 15.0756 2.0066
-21.3358 0.2566 1.6442
-21.3365 -6.3602 1.7181
-21.3398 -10.0612 1.8219
-21.3442 -14.3356 1.9868
-21.3346 -2.9813 1.6612
-20.8404 -19.1174 2.1866
-18.9567 -23.5556 2.3390
-15.1946 -26.1268 2.3390
-6.3011 -27.5274 2.1866
-2.2378 -30.1212 2.3390
2.3147 -30.1153 2.3390
-7.8224 -19.8209 1.6496
6.6215 -10.2396 1.0889
6.7172 -7.5836 0.9043
6.7199 -5.6033 0.7806
6.7198 -4.0662 0.7004
6.7215 -2.7889 0.6486
6.7230 -1.6626 0.6169
6.7243 -0.6175 0.6011
6.6419 0.3942 0.5919
6.7298 1.4354 0.6117
6.7312 2.5414 0.6393
6.7328 3.7826 0.6857
6.6557 5.1946 0.7493
6.7419 7.1331 0.8707
6.7452 9.7263 1.0495
6.7498 13.7796 1.3601
6.6653 21.1989 1.9693
4.0431 26.0857 2.3390
0.0768 26.3985 2.3390
-3.8912 26.1091 2.3390
-7.2635 23.5807 2.1866
-11.4697 23.7645 2.3390
-14.9062 21.7639 2.3390
-18.0006 19.2688 2.3390
-21.3282 12.1464 2.1793
-19.7123 15.5708 2.2293
-21.3308 4.6798 1.9414
-21.3334 1.3909 1.9017
-21.3249 8.1935 2.0296
-21.3365 -5.1450 1.9548
-21.3392 -8.7089 2.0540
-21.3343 -1.8340 1.9060
-19.7038 -16.2364 2.2779
-21.0529 -12.5727 2.1866
-17.4890 -19.5146 2.3390
-14.3518 -21.9129 2.3390
-10.8919 -23.8137 2.3390
-6.7192 -23.5343 2.1866
-3.3218 -25.9656 2.3390
0.6185 -26.1690 2.3390
4.5448 -25.7803 2.3390
6.7075 -19.8824 1.8746
6.7150 -9.2660 1.0217
6.7016 -12.9917 1.3056
6.6348 -4.9601 0.7390
6.7183 -6.8188 0.8543
6.7220 -2.3795 0.6354
6.7235 -1.2886 0.6096
6.7248 -0.2590 0.5989
6.7289 0.7593 0.6023
6.7204 -3.5940 0.6795
6.7317 2.9586 0.6532
6.7303 1.8137 0.6195
6.6516 5.7847 0.7822
6.7429 7.9387 0.9238
6.7334 4.2681 0.7078
6.6623 10.7871 1.1241
6.6706 15.6721 1.5097
6.1418 23.8986 2.1866
-1.3238 26.3653 2.3390
2.6535 26.2643 2.3390
-8.5037 23.1605 2.1866
-5.2707 25.8648 2.3390
-12.7131 23.1201 2.3390
-16.0378 20.9397 2.3390
-18.9946 18.2838 2.3390
-20.1142 14.2227 2.1866
-21.3302 6.9210 1.9927
-21.3327 3.5059 1.9223
-21.3360 0.2567 1.8985
-21.3347 -2.9812 1.9179
-21.3258 10.6887 2.1185
-21.3363 -6.3601 1.9834
-21.3401 -10.0613 2.1030
-20.3524 -13.6693 2.1866
-19.3163 -17.7191 2.3390
-16.4266 -20.4121 2.3390
-7.8150 -19.8019 1.9017
-1.9394 -26.1047 2.3390
-5.7563 -25.1473 2.3049
-13.1674 -22.6409 2.3390
2.0061 -26.0996 2.3390
6.6215 -10.2394 1.2345
6.7172 -7.5835 1.0252
6.7198 -5.6032 0.8851
6.7197 -4.0662 0.7942
6.7214 -2.7889 0.7354
6.7229 -1.6626 0.6995
6.7243 -0.6175 0.6817
6.6418 0.3942 0.6713
6.7297 1.4354 0.6939
6.7311 2.5414 0.7252
6.7327 3.7826 0.7779
6.6556 5.1946 0.8501
6.7418 7.1331 0.9878
6.7451 9.7262 1.1908
6.7497 13.7794 1.5433
6.5219 20.7432 2.1866
3.5630 22.9884 2.3390
0.0677 23.2638 2.3390
-3.4292 23.0089 2.3390
-6.4012 20.7811 2.1866
-10.1082 20.9437 2.3390
-13.1373 19.1812 2.3390
-15.8652 16.9830 2.3390
-18.2298 14.3998 2.3390
-19.7023 11.2206 2.2839
-20.2527 7.7816 2.1866
-21.1807 4.6469 2.1866
-21.3336 1.3911 2.1570
-21.3344 -1.8340 2.1616
-21.0450 -5.0747 2.1866
-20.0325 -8.1756 2.1866
-19.6960 -11.7622 2.3196
-17.8445 -14.7042 2.3390
-15.4256 -17.2120 2.3390
-12.6591 -19.3284 2.3390
-8.9817 -19.6370 2.1866
-5.9271 -20.7598 2.1866
-2.9302 -22.9048 2.3390
0.5456 -23.0842 2.3390
4.0091 -22.7412 2.3390
6.9015 -20.4576 2.1866
6.7015 -12.9914 1.4801
6.7149 -9.2658 1.1583
6.7182 -6.8187 0.9686
6.6347 -4.9600 0.8379
6.7204 -3.5939 0.7705
6.7220 -2.3795 0.7205
6.7234 -1.2886 0.6914
6.7248 -0.2590 0.6793
6.7288 0.7593 0.6831
6.7302 1.8137 0.7028
6.7317 2.9586 0.7410
6.7333 4.2681 0.8029
6.6515 5.7847 0.8874
6.7428 7.9387 1.0482
6.6622 10.7870 1.2754
6.6705 15.6718 1.7130
5.4125 21.0611 2.1866
2.3385 23.1457 2.3390
-1.1666 23.2345 2.3390
-4.6449 22.7938 2.3390
-7.4942 20.4109 2.1866
-11.2041 20.3760 2.3390
-14.1348 18.4551 2.3390
-16.7416 16.1153 2.3390
-18.9651 13.4103 2.3390
-19.7138 9.8808 2.2217
-20.6332 6.6949 2.1866
-21.3326 3.5060 2.1804
-21.3362 0.2568 2.1533
-21.3348 -2.9811 2.1751
-20.7421 -6.1829 2.1866
-19.7175 -9.2962 2.2034
-19.2005 -12.8957 2.3390
-17.0366 -15.6279 2.3390
-14.4887 -18.0040 2.3390
-11.6145 -19.9707 2.3390
-7.8075 -19.7829 2.1538
-5.1528 -22.5107 2.3390
-1.7108 -23.0275 2.3390
1.7696 -23.0230 2.3390
6.6214 -10.2392 1.3804
6.7171 -7.5833 1.1465
6.7198 -5.6031 0.9898
6.7197 -4.0661 0.8882
6.7214 -2.7888 0.8225
6.7229 -1.6626 0.7824
6.7242 -0.6175 0.7625
6.6418 0.3943 0.7509
6.7297 1.4355 0.7762
6.7311 2.5414 0.8113
6.7327 3.7826 0.8703
6.6555 5.1946 0.9511
6.7417 7.1331 1.1053
6.7450 9.7262 1.3325
6.7496 13.7792 1.7269
5.8283 18.5371 2.1866
3.1840 20.5433 2.3390
0.0605 20.7893 2.3390
-3.0644 20.5616 2.3390
-5.7721 18.7391 2.2064
-8.4448 17.4972 2.1866
-11.7407 17.1422 2.3390
-14.1791 15.1782 2.3390
-16.2931 12.8701 2.3390
-18.0348 10.2710 2.3390
-19.3647 7.4405 2.3390
-19.7039 4.3230 2.2756
-19.7125 1.2854 2.2295
-19.7117 -1.6944 2.2340
-19.7014 -4.7507 2.2895
-19.1597 -7.8192 2.3390
-17.7588 -10.6053 2.3390
-15.9566 -13.1485 2.3390
-13.7942 -15.3917 2.3390
-8.0323 -17.5613 2.1866
-11.3207 -17.2848 2.3390
-2.6206 -20.4843 2.3390
0.4879 -20.6449 2.3390
3.5855 -20.3380 2.3390
-5.6701 -19.8597 2.3390
6.1721 -18.2953 2.1866
6.7148 -9.2657 1.2953
6.7014 -12.9911 1.6551
6.7181 -6.8186 1.0832
6.6347 -4.9599 0.9370
6.7203 -3.5939 0.8617
6.7234 -1.2885 0.7733
6.7247 -0.2590 0.7598
6.7288 0.7593 0.7641
6.7302 1.8137 0.7862
6.7316 2.9586 0.8290
6.7219 -2.3794 0.8059
6.7333 4.2681 0.8983
6.6514 5.7847 0.9929
6.7428 7.9386 1.1728
6.6621 10.7869 1.4271
4.8369 18.8212 2.1866
2.0897 20.6837 2.3390
6.6704 15.6716 1.9168
-1.0425 20.7632 2.3390
-4.1508 20.3694 2.3390
-10.0128 18.2096 2.3390
-6.6972 18.2403 2.1866
-14.9625 14.4028 2.3390
-16.9506 11.9859 2.3390
-12.6323 16.4935 2.3390
-18.5514 9.2983 2.3390
-19.7080 3.2391 2.2534
-19.7133 0.2373 2.2254
-19.7092 -2.7540 2.2475
-19.6954 -5.8708 2.3222
-18.7148 -8.8233 2.3390
-19.6929 6.3899 2.3347
-17.1686 -11.5308 2.3390
-12.9566 -16.1000 2.3390
-10.3867 -17.8594 2.3390
-4.6082 -20.1318 2.3390
-1.5300 -20.5941 2.3390
-15.2345 -13.9747 2.3390
-7.0887 -17.9615 2.1866
1.5826 -20.5901 2.3390
6.6213 -10.2390 1.5267
6.7170 -7.5832 1.2680
6.7197 -5.6031 1.0948
6.7196 -4.0660 0.9824
6.7213 -2.7887 0.9099
6.7228 -1.6625 0.8655
6.7242 -0.6174 0.8435
6.6417 0.3943 0.8308
6.7296 1.4355 0.8588
6.7310 2.5414 0.8976
6.7326 3.7826 0.9630
6.6555 5.1946 1.0524
6.7417 7.1330 1.2230
6.7449 9.7261 1.4745
6.7495 13.7790 1.9110
5.2667 16.7509 2.1866
2.8772 18.5636 2.3390
0.0547 18.7858 2.3390
-2.7691 18.5801 2.3390
-5.5294 17.9512 2.3390
-7.6312 15.8114 2.1866
-10.6097 15.4910 2.3390
-12.8137 13.7167 2.3390
-14.7246 11.6312 2.3390
-16.2992 9.2827 2.3390
-17.5020 6.7249 2.3390
-18.3059 4.0164 2.3390
-18.6931 1.2190 2.3390
-18.6554 -1.6035 2.3390
-18.1943 -4.3871 2.3390
-17.3207 -7.0687 2.3390
-16.0550 -9.5877 2.3390
-14.4263 -11.8873 2.3390
-10.2356 -15.6279 2.3390
-12.4717 -13.9159 2.3390
-5.1269 -17.9569 2.3390
-7.2626 -15.8784 2.1866
0.4412 -18.6670 2.3390
3.2419 -18.3894 2.3390
-2.3695 -18.5217 2.3390
5.5807 -16.5423 2.1866
6.7013 -12.9909 1.8305
6.7147 -9.2655 1.4326
6.6346 -4.9599 1.0364
6.7202 -3.5938 0.9531
6.7219 -2.3794 0.8914
6.7233 -1.2885 0.8554
6.7247 -0.2589 0.8405
6.7287 0.7594 0.8454
6.7301 1.8137 0.8698
6.7181 -6.8184 1.1980
6.7332 4.2681 0.9940
6.7316 2.9586 0.9172
6.7427 7.9386 1.2978
6.6620 10.7868 1.5793
6.6514 5.7847 1.0987
4.6754 18.1929 2.3390
1.8883 18.6905 2.3390
6.8761 16.1550 2.1866
-3.7508 18.4065 2.3390
-0.9420 18.7622 2.3390
-6.0518 16.4828 2.1866
-11.4156 14.9050 2.3390
-8.4586 15.3832 2.1866
-15.3190 10.8323 2.3390
-13.5218 13.0161 2.3390
-16.7664 8.4037 2.3390
-17.8314 5.7860 2.3390
-18.4902 3.0390 2.3390
-18.7284 0.2255 2.3390
-17.9331 -5.3454 2.3390
-16.9188 -7.9765 2.3390
-18.5411 -2.5906 2.3390
-15.5216 -10.4246 2.3390
-13.7736 -12.6345 2.3390
-11.7145 -14.5565 2.3390
-6.4095 -16.2403 2.1866
-4.1667 -18.2029 2.3390
-1.3834 -18.6210 2.3390
-8.7793 -15.0955 2.1866
1.4310 -18.6174 2.3390
6.6212 -10.2388 1.6734
6.7169 -7.5831 1.3899
6.7196 -5.6030 1.2001
6.7195 -4.0660 1.0769
6.7213 -2.7887 0.9974
6.7228 -1.6625 0.9489
6.7241 -0.6174 0.9248
6.6417 0.3943 0.9109
6.7296 1.4355 0.9416
6.7310 2.5414 0.9842
6.6554 5.1946 1.1540
6.7326 3.7826 1.0559
6.7448 9.7260 1.6169
7.0427 14.3779 2.1867
4.8025 15.2747 2.1866
2.6236 16.9275 2.3390
0.0498 17.1301 2.3390
6.7416 7.1330 1.3412
-5.0421 16.3692 2.3390
-6.9587 14.4182 2.1866
-9.0446 13.2059 2.1866
-11.6851 12.5086 2.3390
-2.5250 16.9425 2.3390
-13.4281 10.6072 2.3390
-14.8646 8.4657 2.3390
-16.6958 3.6632 2.3390
-15.9620 6.1333 2.3390
-17.0160 -1.4625 2.3390
-17.0496 1.1119 2.3390
-15.7998 -6.4479 2.3390
-16.5960 -4.0017 2.3390
-13.1604 -10.8442 2.3390
-14.6457 -8.7460 2.3390
-8.7295 -13.3283 2.1866
-6.6258 -14.4860 2.1866
-4.6774 -16.3825 2.3390
-2.1618 -16.8980 2.3390
0.4025 -17.0305 2.3390
2.9577 -16.7772 2.3390
5.0914 -15.0919 2.1866
-11.3776 -12.6951 2.3390
6.7146 -9.2653 1.5703
6.7180 -6.8183 1.3132
6.7012 -12.9906 2.0064
6.7202 -3.5938 1.0448
6.7218 -2.3793 0.9772
6.6346 -4.9598 1.1361
6.7233 -1.2885 0.9378
6.7246 -0.2589 0.9215
6.7287 0.7594 0.9269
6.7301 1.8137 0.9537
6.7332 4.2681 1.0899
6.7315 2.9586 1.0057
6.7426 7.9385 1.4231
6.6513 5.7846 1.2048
6.6619 10.7867 1.7318
4.2633 16.5896 2.3390
6.2701 14.7315 2.1866
-0.8590 17.1086 2.3390
-3.4202 16.7843 2.3390
1.7219 17.0432 2.3390
-7.7133 14.0278 2.1866
-12.3310 11.8699 2.3390
-5.7595 15.6868 2.2821
-10.4099 13.5920 2.3390
-16.2627 5.2770 2.3390
-15.2908 7.6642 2.3390
-13.9703 9.8787 2.3390
-17.0821 0.2057 2.3390
-16.9119 -2.3629 2.3390
-15.4333 -7.2761 2.3390
-16.3580 -4.8758 2.3390
-14.1593 -9.5096 2.3390
-12.5651 -11.5259 2.3390
-10.6870 -13.2796 2.3390
-8.0094 -13.7716 2.1866
-5.8475 -14.8163 2.1866
-16.8642 2.7718 2.3390
-3.8014 -16.6070 2.3390
-1.2622 -16.9886 2.3390
1.3056 -16.9853 2.3390
6.6211 -10.2386 1.8206
6.7169 -7.5829 1.5122
6.7196 -5.6029 1.3057
6.7195 -4.0659 1.1718
6.7212 -2.7886 1.0853
6.7227 -1.6624 1.0325
6.7241 -0.6174 1.0063
6.6416 0.3944 0.9912
6.7295 1.4355 1.0247
6.7309 2.5414 1.0710
6.7325 3.7826 1.1492
6.6553 5.1946 1.2559
6.7415 7.1330 1.4596
6.7447 9.7259 1.7598
6.4704 13.2096 2.1866
4.6942 14.9304 2.3263
2.4104 15.5523 2.3390
0.0458 15.7385 2.3390
-2.3199 15.5662 2.3390
-4.6325 15.0395 2.3390
-6.3935 13.2472 2.1866
-8.3101 12.1336 2.1866
-12.3382 9.7463 2.3390
-13.6585 7.7788 2.3390
-14.6673 5.6358 2.3390
-15.3420 3.3662 2.3390
-15.6677 1.0218 2.3390
-15.6373 -1.3440 2.3390
-15.2519 -3.6775 2.3390
-10.7364 11.4931 2.3390
-14.5206 -5.9258 2.3390
-12.0955 -9.9667 2.3390
-10.4573 -11.6681 2.3390
-13.4604 -8.0381 2.3390
-8.0236 -12.2504 2.1866
-4.2993 -15.0580 2.3390
-1.9870 -15.5319 2.3390
0.3700 -15.6538 2.3390
2.7186 -15.4209 2.3390
4.7166 -13.9806 2.2038
-6.0900 -13.3147 2.1866
6.7125 -13.0127 2.1866
6.7145 -9.2651 1.7084
6.7179 -6.8182 1.4288
6.7201 -3.5937 1.1368
6.6345 -4.9597 1.2361
6.7218 -2.3793 1.0633
6.7246 -0.2589 1.0028
6.7300 1.8137 1.0378
6.7286 0.7594 1.0086
6.7331 4.2680 1.1862
6.7315 2.9586 1.0944
6.7425 7.9385 1.5488
6.7232 -1.2884 1.0205
6.6618 10.7866 1.8849
3.9170 15.2420 2.3390
1.5820 15.6586 2.3390
-0.7892 15.7187 2.3390
5.7608 13.5350 2.1866
-3.1424 15.4208 2.3390
-7.0869 12.8886 2.1866
-8.9415 11.6747 2.1866
6.6512 5.7846 1.3112
-5.4236 14.7719 2.3390
-11.3299 10.9063 2.3390
-12.8365 9.0770 2.3390
-14.9437 4.8491 2.3390
-15.6977 0.1891 2.3390
-15.5418 -2.1714 2.3390
-14.0502 7.0424 2.3390
-15.0333 -4.4809 2.3390
-14.1840 -6.6870 2.3390
-15.4969 2.5472 2.3390
-9.1826 -11.4104 2.1866
-7.3617 -12.6579 2.1866
-13.0134 -8.7399 2.3390
-5.7493 -14.5675 2.3390
-11.5485 -10.5933 2.3390
-3.4941 -15.2644 2.3390
-1.1601 -15.6152 2.3390
1.2000 -15.6122 2.3390
6.6210 -10.2384 1.9684
6.7168 -7.5828 1.6350
6.7195 -5.6028 1.4117
6.7194 -4.0658 1.2669
6.7212 -2.7886 1.1735
6.7227 -1.6624 1.1164
6.7240 -0.6173 1.0881
6.6416 0.3944 1.0718
6.7295 1.4355 1.1081
6.7309 2.5415 1.1582
6.7324 3.7826 1.2427
6.6553 5.1946 1.3582
6.7414 7.1329 1.5785
6.7446 9.7258 1.9032
5.9828 12.2141 2.1866
4.3642 13.8806 2.3390
2.2287 14.3800 2.3390
0.0423 14.5521 2.3390
-2.1450 14.3928 2.3390
-4.2833 13.9059 2.3390
-5.9116 12.2489 2.1866
-7.6839 11.2193 2.1866
-9.9275 10.6273 2.3390
-11.4089 9.0123 2.3390
-12.6300 7.1932 2.3390
-13.5632 5.2117 2.3390
-14.1876 3.1130 2.3390
-14.4891 0.9451 2.3390
-14.4614 -1.2428 2.3390
-14.1054 -3.4010 2.3390
-13.4294 -5.4804 2.3390
-12.4492 -7.4342 2.3390
-11.1872 -9.2181 2.3390
-9.0419 -10.0888 2.1866
-7.4213 -11.3308 2.1866
-5.7671 -12.6087 2.2387
-3.9766 -13.9279 2.3390
-1.8379 -14.3663 2.3390
0.3422 -14.4791 2.3390
2.5146 -14.2637 2.3390
4.6303 -13.7248 2.3390
6.2087 -12.0360 2.1866
6.7144 -9.2650 1.8471
6.7178 -6.8181 1.5447
6.6344 -4.9596 1.3365
6.7201 -3.5936 1.2292
6.7217 -2.3792 1.1497
6.7232 -1.2884 1.1034
6.7245 -0.2588 1.0843
6.7286 0.7594 1.0907
6.7299 1.8138 1.1223
6.7314 2.9586 1.1835
6.7330 4.2680 1.2827
6.6511 5.7846 1.4180
6.7424 7.9384 1.6750
6.6617 10.7865 2.0385
5.3266 12.5149 2.1866
3.6217 14.0931 2.3390
1.4627 14.4783 2.3390
-0.7297 14.5338 2.3390
-2.9055 14.2585 2.3390
-5.0148 13.6586 2.3390
-6.5528 11.9173 2.1866
-8.2677 10.7951 2.1866
-10.4764 10.0848 2.3390
-11.8698 8.3935 2.3390
-12.9924 6.5123 2.3390
-13.8190 4.4842 2.3390
-14.3310 2.3556 2.3390
-14.5171 0.1750 2.3390
-14.3733 -2.0081 2.3390
-13.9034 -4.1441 2.3390
-13.1182 -6.1845 2.3390
-12.0360 -8.0834 2.3390
-10.6813 -9.7978 2.3390
-8.4932 -10.5535 2.1866
-6.8092 -11.7078 2.1866
-5.3178 -13.4741 2.3390
-3.2319 -14.1188 2.3390
-1.0731 -14.4434 2.3390
1.1100 -14.4406 2.3390
6.8396 -10.5765 2.1866
6.7167 -7.5827 1.7582
6.7194 -5.6027 1.5181
6.7194 -4.0657 1.3624
6.7211 -2.7885 1.2620
6.7226 -1.6623 1.2006
6.7240 -0.6173 1.1703
6.6415 0.3944 1.1527
6.7294 1.4356 1.1917
6.7308 2.5415 1.2457
6.7324 3.7826 1.3366
6.6552 5.1946 1.4609
6.7414 7.1329 1.6979
6.7445 9.7258 2.0471
5.5620 11.3551 2.1866
4.0572 12.9043 2.3390
2.0720 13.3685 2.3390
0.0394 13.5284 2.3390
-1.9941 13.3804 2.3390
-3.9820 12.9278 2.3390
-5.7581 11.9308 2.2909
-7.1436 10.4304 2.1866
-8.6282 9.2364 2.1866
-10.6070 8.3789 2.3390
-11.7425 6.6878 2.3390
-12.6104 4.8456 2.3390
-13.1912 2.8944 2.3390
-13.4465 -1.1555 2.3390
-13.4719 0.8788 2.3390
-12.4875 -5.0960 2.3390
-13.1157 -3.1623 2.3390
-11.5763 -6.9129 2.3390
-8.4082 -9.3817 2.1866
-10.4029 -8.5718 2.3390
-6.9012 -10.5368 2.1866
-3.6981 -12.9522 2.3390
-1.7092 -13.3600 2.3390
-5.6034 -12.2507 2.3390
2.3385 -13.2645 2.3390
0.3182 -13.4648 2.3390
5.7737 -11.1926 2.1866
6.7144 -9.2648 1.9862
6.7178 -6.8180 1.6612
6.6344 -4.9595 1.4372
4.3059 -12.7633 2.3390
6.7200 -3.5936 1.3219
6.7231 -1.2883 1.1867
6.7245 -0.2588 1.1662
6.7216 -2.3792 1.2364
6.7285 0.7595 1.1730
6.7299 1.8138 1.2071
6.7330 4.2680 1.3797
6.7313 2.9586 1.2730
6.7424 7.9384 1.8017
6.6432 10.7567 2.1866
4.9520 11.6347 2.1866
3.3670 13.1018 2.3390
6.6511 5.7846 1.5252
-0.6784 13.5114 2.3390
-2.7011 13.2555 2.3390
1.3598 13.4598 2.3390
-6.0919 11.0792 2.1866
-7.6864 10.0361 2.1866
-9.1053 8.7650 2.1866
-11.0355 7.8036 2.3390
-4.6621 12.6979 2.3390
-12.8483 4.1693 2.3390
-13.3246 2.1903 2.3390
-13.4980 0.1628 2.3390
-13.3646 -1.8671 2.3390
-12.0795 6.0547 2.3390
-11.1921 -7.5166 2.3390
-9.9326 -9.1109 2.3390
-12.1982 -5.7507 2.3390
-6.3321 -10.8874 2.1866
-7.8980 -9.8139 2.1866
-3.0055 -13.1298 2.3390
-4.9453 -12.5301 2.3390
-0.9979 -13.4317 2.3390
1.0322 -13.4291 2.3390
-12.9280 -3.8533 2.3390
6.3901 -9.8813 2.1866
6.7166 -7.5825 1.8819
6.7194 -5.6026 1.6250
6.7193 -4.0657 1.4584
6.7210 -2.7885 1.3508
6.7226 -1.6623 1.2852
6.7239 -0.6173 1.2527
6.6415 0.3944 1.2340
6.7294 1.4356 1.2758
6.7308 2.5415 1.3336
6.7323 3.7826 1.4309
6.6551 5.1945 1.5640
6.7413 7.1329 1.8177
6.7289 9.7034 2.1866
5.1951 10.6061 2.1866
3.7895 12.0531 2.3390
1.9353 12.4866 2.3390
0.0368 12.6359 2.3390
-1.8625 12.4977 2.3390
-3.7193 12.0750 2.3390
-5.4911 11.3776 2.3390
-6.6724 9.7425 2.1866
-8.0592 8.6274 2.1866
-9.9077 7.8265 2.3390
-10.9685 6.2470 2.3390
-11.7795 4.5264 2.3390
-12.3222 2.7038 2.3390
-12.5847 0.8210 2.3390
-12.5612 -1.0794 2.3390
-12.2525 -2.9541 2.3390
-11.6659 -4.7606 2.3390
-10.8148 -6.4581 2.3390
-7.8554 -8.7648 2.1866
-9.0856 -7.4863 2.1866
-6.4476 -9.8441 2.1866
-5.2351 -11.4454 2.3390
-3.4550 -12.1009 2.3390
-1.5969 -12.4820 2.3390
0.2973 -12.5800 2.3390
2.1848 -12.3927 2.3390
4.0230 -11.9245 2.3390
5.3942 -10.4569 2.1866
6.9058 -9.5290 2.1866
6.6343 -4.9594 1.5384
6.7199 -3.5935 1.4149
6.7177 -6.8178 1.7780
6.7216 -2.3791 1.3235
6.7244 -0.2588 1.2484
6.7285 0.7595 1.2557
6.7298 1.8138 1.2922
6.7313 2.9587 1.3627
6.7329 4.2680 1.4770
6.6510 5.7846 1.6328
6.7230 -1.2883 1.2703
6.7423 7.9383 1.9289
6.2051 10.0473 2.1866
4.7124 11.0720 2.2278
1.2701 12.5718 2.3390
-0.6336 12.6201 2.3390
-4.3545 11.8603 2.3390
-5.7704 10.4945 2.2175
-2.5229 12.3810 2.3390
-7.1794 9.3742 2.1866
-10.3080 7.2892 2.3390
3.1448 12.2375 2.3390
-12.0018 3.8946 2.3390
-12.4470 2.0460 2.3390
-11.2834 5.6558 2.3390
-8.5049 8.1871 2.1866
-12.0772 -3.5996 2.3390
-12.4849 -1.7442 2.3390
-11.3957 -5.3723 2.3390
-12.6092 0.1521 2.3390
-7.3788 -9.1686 2.1866
-8.6749 -7.9572 2.1866
-5.9159 -10.1717 2.1866
-10.4560 -7.0221 2.3390
-0.9323 -12.5490 2.3390
-4.6203 -11.7066 2.3390
0.9644 -12.5465 2.3390
-2.8080 -12.2668 2.3390
5.9943 -9.2693 2.1866
6.7165 -7.5824 2.0061
6.7193 -5.6025 1.7323
6.7192 -4.0656 1.5547
6.7210 -2.7884 1.4401
6.7225 -1.6622 1.3701
6.7239 -0.6172 1.3355
6.6414 0.3945 1.3156
6.7293 1.4356 1.3602
6.7307 2.5415 1.4218
6.7323 3.7826 1.5257
6.6551 5.1945 1.6675
6.7412 7.1328 1.9381
6.3109 9.1006 2.1866
4.8810 9.9649 2.1905
3.5540 11.3041 2.3390
1.8150 11.7106 2.3390
0.0345 11.8507 2.3390
-1.7468 11.7210 2.3390
-3.4882 11.3247 2.3390
-5.1499 10.6707 2.3390
-6.2579 9.1373 2.1866
-7.5586 8.0916 2.1866
-8.6869 6.8622 2.1866
-10.2875 5.8592 2.3390
-11.0483 4.2455 2.3390
-11.5576 2.5361 2.3390
-11.7821 -1.0124 2.3390
-11.8040 0.7701 2.3390
-10.9427 -4.4655 2.3390
-11.4928 -2.7709 2.3390
-8.5227 -7.0224 2.1866
-10.1446 -6.0578 2.3390
-7.3688 -8.2219 2.1866
-6.0483 -9.2343 2.1866
-4.9109 -10.7366 2.3390
-1.4980 -11.7091 2.3390
0.2789 -11.8010 2.3390
2.0495 -11.6254 2.3390
-3.2411 -11.3516 2.3390
3.7738 -11.1861 2.3390
5.0602 -9.8093 2.1866
6.4781 -8.9387 2.1866
6.7176 -6.8177 1.8954
6.6342 -4.9593 1.6400
6.7199 -3.5934 1.5084
6.7215 -2.3791 1.4110
6.7244 -0.2587 1.3309
6.7284 0.7595 1.3388
6.7298 1.8138 1.3777
6.7230 -1.2882 1.3542
6.7312 2.9587 1.4529
6.6509 5.7845 1.7409
6.7422 7.9383 2.0566
5.8195 9.4231 2.1866
6.7329 4.2680 1.5748
1.1912 11.7906 2.3390
4.6403 10.9024 2.3390
-2.3661 11.6116 2.3390
-0.5942 11.8358 2.3390
2.9494 11.4771 2.3390
-5.7085 10.3820 2.3390
-6.7334 8.7919 2.1866
-4.0839 11.1233 2.3390
-9.0380 6.3912 2.1866
-7.9767 7.6786 2.1866
-10.5829 5.3047 2.3390
-11.8270 0.1427 2.3390
-11.7106 -1.6360 2.3390
-11.6746 1.9191 2.3390
-11.3285 -3.3764 2.3390
-10.6894 -5.0393 2.3390
-11.2568 3.6530 2.3390
-6.9217 -8.6007 2.1866
-5.7618 -9.9069 2.2703
-4.3342 -10.9816 2.3390
-8.1374 -7.4642 2.1866
-9.1690 -6.1578 2.1866
-0.8746 -11.7720 2.3390
-2.6342 -11.5073 2.3390
0.9047 -11.7697 2.3390
5.6432 -8.7262 2.1866
6.8918 -7.7803 2.1866
6.7192 -5.6024 1.8401
6.7192 -4.0655 1.6515
6.7209 -2.7884 1.5297
6.7224 -1.6622 1.4555
6.7238 -0.6172 1.4188
6.6414 0.3945 1.3976
6.7292 1.4356 1.4450
6.7306 2.5415 1.5105
6.7322 3.7826 1.6208
6.6550 5.1945 1.7716
6.7411 7.1328 2.0590
5.9401 8.5660 2.1866
4.7092 9.6142 2.2453
3.3452 10.6398 2.3390
1.7083 11.0224 2.3390
0.0325 11.1542 2.3390
-1.6441 11.0322 2.3390
-3.2832 10.6592 2.3390
-5.8902 8.6005 2.1866
-7.1146 7.6163 2.1866
-8.1767 6.4593 2.1866
-9.0525 5.1559 2.1866
-10.3997 3.9963 2.3390
-4.8473 10.0437 2.3390
-11.1114 0.7249 2.3390
-10.8793 2.3873 2.3390
-11.0910 -0.9530 2.3390
-10.3012 -4.2036 2.3390
-10.8188 -2.6084 2.3390
-8.9277 -5.3311 2.1866
-6.9371 -7.7401 2.1866
-5.7709 -8.8108 2.2161
-4.6233 -10.1077 2.3390
-8.0232 -6.6109 2.1866
-3.0513 -10.6867 2.3390
-1.4103 -11.0233 2.3390
0.2626 -11.1099 2.3390
3.5528 -10.5309 2.3390
4.7638 -9.2347 2.1866
6.0986 -8.4150 2.1866
6.7175 -6.8176 2.0134
1.9295 -10.9445 2.3390
6.7198 -3.5934 1.6023
6.6342 -4.9593 1.7420
6.7215 -2.3790 1.4988
6.7229 -1.2882 1.4386
6.7243 -0.2587 1.4138
6.7284 0.7595 1.4222
6.7312 2.9587 1.5435
6.7297 1.8138 1.4636
6.7328 4.2680 1.6731
6.7472 7.9443 2.1866
6.6509 5.7845 1.8495
5.4776 8.8695 2.1866
4.3676 10.2618 2.3390
2.7761 10.8026 2.3390
-0.5593 11.1402 2.3390
-2.2271 10.9293 2.3390
-3.8439 10.4697 2.3390
1.1212 11.0977 2.3390
-7.5081 7.2276 2.1866
-5.3731 9.7720 2.3390
-6.3378 8.2754 2.1866
-8.5072 6.0159 2.1866
-10.9895 1.8066 2.3390
-11.1331 0.1344 2.3390
-11.0238 -1.5399 2.3390
-9.9615 4.9933 2.3390
-10.6642 -3.1784 2.3390
-10.0627 -4.7438 2.3390
-8.6316 -5.7968 2.1866
-7.6606 -7.0267 2.1866
-5.5885 -9.6088 2.3390
-6.5162 -8.0967 2.1866
-2.4799 -10.8333 2.3390
-10.5961 3.4386 2.3390
-0.8234 -11.0825 2.3390
0.8517 -11.0804 2.3390
-4.0803 -10.3384 2.3390
5.3294 -8.2410 2.1866
6.5086 -7.3476 2.1866
6.7192 -5.6023 1.9484
6.7191 -4.0655 1.7487
6.7209 -2.7883 1.6199
6.7224 -1.6622 1.5412
6.7238 -0.6171 1.5024
6.6413 0.3945 1.4800
6.7292 1.4357 1.5302
6.7306 2.5415 1.5996
6.7321 3.7826 1.7164
6.6549 5.1945 1.8761
6.7596 7.1524 2.1866
5.6089 8.0884 2.1866
4.6321 9.4569 2.3390
3.1586 10.0466 2.3390
1.6131 10.4078 2.3390
0.0306 10.5322 2.3390
-1.5524 10.4170 2.3390
-3.1001 10.0648 2.3390
-4.5770 9.4837 2.3390
-5.7624 8.4139 2.2655
-6.7180 7.1918 2.1866
-7.7210 6.0993 2.1866
-8.5481 4.8686 2.1866
-10.2733 2.2544 2.3390
-9.1805 3.5278 2.1866
-10.4927 0.6846 2.3390
-10.2167 -2.4631 2.3390
-9.0942 -3.7108 2.1866
-10.4736 -0.8999 2.3390
-8.4311 -5.0345 2.1866
-7.5770 -6.2431 2.1866
-6.5513 -7.3097 2.1866
-5.7505 -8.7796 2.3383
-2.8817 -10.0926 2.3390
-1.3319 -10.4105 2.3390
0.2480 -10.4923 2.3390
-4.3663 -9.5457 2.3390
1.8223 -10.3361 2.3390
4.7016 -9.1140 2.2851
5.7595 -7.9471 2.1866
3.3553 -9.9454 2.3390
6.6341 -4.9592 1.8446
6.7198 -3.5933 1.6967
6.8897 -6.9923 2.1866
6.7214 -2.3790 1.5872
6.7229 -1.2882 1.5234
6.7283 0.7596 1.5061
6.7242 -0.2587 1.4972
6.7327 4.2680 1.7718
6.7297 1.8139 1.5499
6.3711 7.5015 2.1866
6.6508 5.7845 1.9587
4.1240 9.6896 2.3390
6.7311 2.9587 1.6346
1.0587 10.4788 2.3390
2.6213 10.2002 2.3390
-2.1029 10.3198 2.3390
5.1722 8.3750 2.1866
-0.5281 10.5190 2.3390
-5.9845 7.8141 2.1866
-3.6296 9.8859 2.3390
-5.0735 9.2272 2.3390
-8.0331 5.6807 2.1866
-7.0896 6.8248 2.1866
-10.0058 3.2471 2.3390
-8.7936 4.4079 2.1866
-10.4102 -1.4542 2.3390
-10.3775 1.7060 2.3390
-10.0707 -3.0015 2.3390
-10.5132 0.1270 2.3390
-8.1515 -5.4743 2.1866
-8.8837 -4.1880 2.1866
-6.1539 -7.6465 2.1866
-7.2346 -6.6359 2.1866
-3.8535 -9.7636 2.3390
-5.2778 -9.0746 2.3390
-0.7776 -10.4665 2.3390
0.8044 -10.4644 2.3390
-2.3420 -10.2311 2.3390
5.0473 -7.8048 2.1866
6.1640 -6.9585 2.1866
6.7191 -5.6022 2.0574
6.7191 -4.0654 1.8465
6.7208 -2.7882 1.7105
6.7223 -1.6621 1.6274
6.7237 -0.6171 1.5864
6.6413 0.3945 1.5628
6.7291 1.4357 1.6158
6.7305 2.5415 1.6891
6.7321 3.7826 1.8126
6.6549 5.1945 1.9812
6.4009 6.7729 2.1866
5.3112 7.6592 2.1866
4.3862 8.9549 2.3390
2.9909 9.5133 2.3390
1.5274 9.8553 2.3390
0.0290 9.9731 2.3390
-1.4700 9.8641 2.3390
-2.9355 9.5306 2.3390
-4.3341 8.9804 2.3390
-5.6337 8.2261 2.3390
-6.3615 6.8102 2.1866
-7.3113 5.7758 2.1866
-8.0946 4.6104 2.1866
-8.6936 3.3408 2.1866
-9.0947 1.9958 2.1866
-9.9365 0.6484 2.3390
-9.9185 -0.8521 2.3390
-9.0450 -2.1806 2.1866
-8.6124 -3.5144 2.1866
-7.9846 -4.7678 2.1866
-6.2045 -6.9226 2.1866
-5.4477 -8.3172 2.3390
-7.1758 -5.9125 2.1866
-2.7292 -9.5585 2.3390
-4.1352 -9.0405 2.3390
-1.2614 -9.8596 2.3390
0.2349 -9.9370 2.3390
3.1777 -9.4190 2.3390
1.7258 -9.7891 2.3390
5.4546 -7.5263 2.1866
4.5578 -8.8353 2.3390
6.5249 -6.6221 2.1866
6.6340 -4.9591 1.9477
6.7214 -2.3789 1.6759
6.7228 -1.2881 1.6086
6.7242 -0.2586 1.5809
6.7283 0.7596 1.5904
6.7296 1.8139 1.6366
6.7311 2.9587 1.7261
6.7197 -3.5932 1.7915
6.7327 4.2680 1.8710
6.0330 7.1034 2.1866
4.8977 7.9306 2.1866
3.9051 9.1753 2.3390
6.6507 5.7845 2.0684
2.4821 9.6588 2.3390
1.0024 9.9226 2.3390
-0.5001 9.9606 2.3390
-1.9912 9.7720 2.3390
-3.4369 9.3612 2.3390
-5.7690 7.5328 2.2260
-4.8042 8.7375 2.3390
-7.6069 5.3793 2.1866
-8.3272 4.1741 2.1866
-6.7134 6.4627 2.1866
-9.1870 1.5103 2.1866
-8.8578 2.8746 2.1866
-9.9560 0.1203 2.3390
-9.2161 -1.2873 2.1866
-8.4132 -3.9661 2.1866
-7.7198 -5.1844 2.1866
-8.9158 -2.6572 2.1866
-5.8281 -7.2417 2.1866
-4.9985 -8.5942 2.3390
-3.6495 -9.2468 2.3390
-2.2181 -9.6896 2.3390
-6.8515 -6.2845 2.1866
-0.7365 -9.9125 2.3390
0.7618 -9.9106 2.3390
4.7922 -7.4103 2.1866
5.8524 -6.6068 2.1866
6.7801 -5.6531 2.1866
6.7190 -4.0653 1.9448
6.7208 -2.7882 1.8015
6.7223 -1.6621 1.7141
6.7237 -0.6171 1.6710
6.6412 0.3946 1.6461
6.7291 1.4357 1.7020
6.7305 2.5415 1.7792
6.7320 3.7826 1.9092
6.9729 5.4428 2.1866
6.0767 6.4299 2.1866
5.0422 7.2712 2.1866
4.1640 8.5012 2.3390
2.8394 9.0312 2.3390
1.4500 9.3559 2.3390
0.0275 9.4678 2.3390
-1.3955 9.3642 2.3390
-2.7868 9.0477 2.3390
-4.1144 8.5254 2.3390
-5.3483 7.8093 2.3390
-6.0392 6.4652 2.1866
-6.9410 5.4832 2.1866
-7.6847 4.3770 2.1866
-8.2534 3.1717 2.1866
-8.6344 1.8948 2.1866
-8.8190 0.5755 2.1866
-8.8031 -0.7563 2.1866
-8.5874 -2.0703 2.1866
-8.1769 -3.3366 2.1866
-7.5809 -4.5267 2.1866
-6.8130 -5.6136 2.1866
-5.8909 -6.5727 2.1866
-5.1724 -7.8969 2.3390
-3.9262 -8.5836 2.3390
-2.5913 -9.0754 2.3390
-1.1977 -9.3613 2.3390
0.2230 -9.4349 2.3390
1.6386 -9.2944 2.3390
3.0172 -8.9430 2.3390
4.3275 -8.3887 2.3390
5.1789 -7.1459 2.1866
6.1951 -6.2873 2.1866
6.6340 -4.9590 2.0514
6.7196 -3.5932 1.8869
6.7213 -2.3789 1.7652
6.7228 -1.2881 1.6943
6.7241 -0.2586 1.6652
6.7282 0.7596 1.6751
6.7296 1.8139 1.7239
6.7310 2.9587 1.8182
6.7326 4.2680 1.9708
6.6746 5.8053 2.1866
5.7273 6.7436 2.1866
4.7144 7.6338 2.2171
3.7072 8.7105 2.3390
2.3563 9.1694 2.3390
0.9516 9.4198 2.3390
-0.4747 9.4559 2.3390
-1.8903 9.2769 2.3390
-3.2627 8.8868 2.3390
-4.5608 8.2948 2.3390
-5.7505 7.5086 2.3373
-6.3733 6.1354 2.1866
-7.2217 5.1069 2.1866
-7.9055 3.9628 2.1866
-8.4094 2.7291 2.1866
-8.7220 1.4339 2.1866
-8.8363 0.1068 2.1866
-8.7499 -1.2222 2.1866
-8.4648 -2.5228 2.1866
-7.9877 -3.7655 2.1866
-7.3295 -4.9222 2.1866
-6.5052 -5.9668 2.1866
-5.7608 -7.1580 2.2764
-4.7459 -8.1598 2.3390
-3.4651 -8.7795 2.3390
-2.1060 -9.2000 2.3390
-0.6993 -9.4116 2.3390
0.7233 -9.4098 2.3390
4.7068 -7.2782 2.2568
5.5693 -6.2871 2.1866
6.4520 -5.3795 2.1866
6.7189 -4.0652 2.0437
6.7207 -2.7881 1.8932
6.7222 -1.6620 1.8013
6.7236 -0.6170 1.7560
6.6412 0.3946 1.7298
6.7290 1.4357 1.7886
6.7304 2.5415 1.8698
6.7319 3.7826 2.0065
6.6347 5.1789 2.1866
5.7821 6.1182 2.1866
4.7977 6.9186 2.1866
3.9620 8.0890 2.3390
2.7017 8.5933 2.3390
1.3797 8.9022 2.3390
0.0262 9.0086 2.3390
-1.3278 8.9101 2.3390
-2.6516 8.6089 2.3390
-3.9149 8.1120 2.3390
-5.0889 7.4307 2.3390
-5.7738 6.1812 2.1970
-6.6045 5.2175 2.1866
-7.3122 4.1649 2.1866
-7.8535 3.0180 2.1866
-8.3918 0.5477 2.1866
-8.2160 1.8031 2.1866
-8.1717 -1.9700 2.1866
-7.5810 -3.0934 2.1304
-7.2140 -4.3076 2.1866
-8.3768 -0.7196 2.1866
-6.4834 -5.3419 2.1866
-4.9222 -7.5148 2.3390
-3.7363 -8.1684 2.3390
-5.7654 -6.4326 2.2488
-1.1397 -8.9085 2.3390
-2.4659 -8.6364 2.3390
0.2122 -8.9785 2.3390
1.5594 -8.8448 2.3390
2.8712 -8.5105 2.3390
4.1182 -7.9829 2.3390
5.8954 -5.9831 2.1866
6.7288 -5.0299 2.1866
6.7196 -3.5931 1.9829
6.7213 -2.3788 1.8550
6.7227 -1.2880 1.7805
4.9284 -6.8002 2.1866
6.7241 -0.2586 1.7499
6.7295 1.8139 1.8117
6.7282 0.7596 1.7604
6.7309 2.9587 1.9108
6.3510 5.5239 2.1866
5.4496 6.4167 2.1866
4.6952 7.6028 2.3206
7.1082 4.5061 2.1867
3.5274 8.2881 2.3390
0.9055 8.9629 2.3390
2.2420 8.7247 2.3390
-0.4517 8.9973 2.3390
-3.1045 8.4559 2.3390
-4.3396 7.8926 2.3390
-5.4757 7.1499 2.3390
-6.8716 4.8594 2.1866
-7.5224 3.7708 2.1866
-6.0644 5.8380 2.1866
-1.7986 8.8270 2.3390
-8.0019 2.5969 2.1866
-8.3262 -1.1629 2.1866
-8.0550 -2.4006 2.1866
-8.4083 0.1017 2.1866
-8.2995 1.3645 2.1866
-5.6328 -6.9990 2.3390
-6.9748 -4.6839 2.1866
-7.6011 -3.5832 2.1866
-3.2975 -8.3548 2.3390
-2.0042 -8.7549 2.3390
-0.6654 -8.9564 2.3390
0.6883 -8.9547 2.3390
-6.1904 -5.6780 2.1866
-4.5163 -7.7651 2.3390
4.6518 -7.1931 2.3390
5.3108 -5.9952 2.1866
6.1525 -5.1297 2.1866
6.8548 -4.1474 2.1866
6.7206 -2.7881 1.9854
6.7222 -1.6620 1.8891
6.7236 -0.6170 1.8415
6.6411 0.3946 1.8141
6.7290 1.4357 1.8758
6.7304 2.5416 1.9609
6.9953 3.9306 2.1867
6.3261 4.9380 2.1866
5.5131 5.8336 2.1866
4.7082 6.7896 2.2505
3.7777 7.7127 2.3390
2.5760 8.1935 2.3390
1.3155 8.4880 2.3390
0.0250 8.5894 2.3390
-1.2661 8.4955 2.3390
-2.5282 8.2084 2.3390
-3.7328 7.7346 2.3390
-4.8522 7.0850 2.3390
-6.2974 4.9749 2.1866
-6.9722 3.9712 2.1866
-7.4884 2.8777 2.1866
-5.7571 6.1633 2.2975
-8.0018 0.5222 2.1866
-7.9876 -0.6861 2.1866
-7.8341 1.7193 2.1866
-7.4197 -3.0276 2.1866
-6.8790 -4.1075 2.1866
-6.1823 -5.0939 2.1866
-5.7182 -6.3799 2.3390
-7.7921 -1.8784 2.1866
-3.5629 -7.7892 2.3390
-4.6937 -7.1660 2.3390
-2.3515 -8.2356 2.3390
-1.0869 -8.4951 2.3390
0.2024 -8.5619 2.3390
2.7380 -8.1155 2.3390
1.4870 -8.4343 2.3390
3.9270 -7.6124 2.3390
5.6217 -5.7053 2.1866
6.4164 -4.7963 2.1866
7.0660 -3.7783 2.1867
6.7212 -2.3788 1.9453
4.7219 -6.5152 2.1970
6.7227 -1.2880 1.8672
6.7240 -0.2585 1.8352
6.7294 1.8139 1.9000
6.7309 2.9587 2.0039
6.7772 4.2964 2.1866
6.7281 0.7597 1.8462
6.0556 5.2670 2.1866
5.1961 6.1182 2.1866
4.5122 7.3065 2.3390
3.3633 7.9025 2.3390
2.1377 8.3188 2.3390
0.8634 8.5459 2.3390
-1.7149 8.4163 2.3390
-0.4307 8.5786 2.3390
-2.9601 8.0625 2.3390
-5.2210 6.8173 2.3390
-5.7823 5.5665 2.1866
-4.1377 7.5254 2.3390
-6.5520 4.6335 2.1866
-7.6299 2.4762 2.1866
-8.0176 0.0970 2.1866
-7.1726 3.5955 2.1866
-7.6808 -2.2890 2.1866
-7.2481 -3.4167 2.1866
-6.6509 -4.4664 2.1866
-7.9393 -1.1089 2.1866
-7.9137 1.3011 2.1866
-5.9030 -5.4144 2.1866
-1.9112 -8.3486 2.3390
-3.1445 -7.9670 2.3390
-5.3714 -6.6740 2.3390
-4.3067 -7.4046 2.3390
-0.6346 -8.5407 2.3390
0.6564 -8.5391 2.3390
4.4442 -6.8720 2.3390
5.0737 -5.7276 2.1866
5.8778 -4.9007 2.1866
6.5488 -3.9622 2.1866
7.0715 -2.9336 2.1867
6.7221 -1.6619 1.9774
6.7235 -0.6170 1.9276
6.6411 0.3947 1.8990
6.7289 1.4358 1.9635
6.7303 2.5416 2.0527
6.6824 3.7548 2.1866
6.0433 4.7173 2.1866
5.2666 5.5728 2.1866
4.6744 6.7410 2.3390
3.6087 7.3677 2.3390
2.4607 7.8270 2.3390
1.2566 8.1083 2.3390
0.0239 8.2052 2.3390
-1.2094 8.1155 2.3390
-2.4151 7.8412 2.3390
-3.5658 7.3887 2.3390
-4.6352 6.7682 2.3390
-5.5989 5.9939 2.3390
-6.6605 3.7937 2.1866
-7.1536 2.7491 2.1866
-6.0158 4.7524 2.1866
-7.6442 0.4989 2.1866
-7.4840 1.6425 2.1866
-7.6308 -0.6555 2.1866
-7.0883 -2.8923 2.1866
-6.5718 -3.9241 2.1866
-5.9064 -4.8664 2.1866
-7.4440 -1.7945 2.1866
-4.4842 -6.8461 2.3390
-3.4039 -7.4416 2.3390
-5.4630 -6.0951 2.3390
-2.2466 -7.8681 2.3390
0.1933 -8.1798 2.3390
-1.0384 -8.1160 2.3390
1.4207 -8.0580 2.3390
3.7518 -7.2726 2.3390
4.7008 -6.4861 2.2893
5.3707 -5.4506 2.1866
2.6158 -7.7533 2.3390
6.7502 -3.6094 2.1866
6.1299 -4.5821 2.1866
6.7226 -1.2879 1.9545
6.7240 -0.2585 1.9210
6.7281 0.7597 1.9325
6.7294 1.8139 1.9888
6.7211 -2.3787 2.0362
7.0164 3.0843 2.1867
4.9637 5.8446 2.1866
5.7848 5.0315 2.1866
6.4742 4.1043 2.1866
4.3104 6.9798 2.3390
2.0421 7.9466 2.3390
0.8247 8.1636 2.3390
-1.6382 8.0398 2.3390
-2.8276 7.7019 2.3390
3.2129 7.5490 2.3390
-0.4114 8.1949 2.3390
-4.9875 6.5124 2.3390
-5.7600 5.5450 2.2801
-6.2591 4.4263 2.1866
-7.2889 2.3656 2.1866
-6.8519 3.4348 2.1866
-3.9526 7.1888 2.3390
-7.3378 -2.1867 2.1866
-6.9244 -3.2641 2.1866
-7.5847 -1.0593 2.1866
-6.3540 -4.2670 2.1866
-5.1316 -6.3761 2.3390
-5.7675 -5.2900 2.2362
-7.5600 1.2430 2.1866
-3.0042 -7.6115 2.3390
-1.8259 -7.9760 2.3390
-7.6594 0.0927 2.1866
0.6271 -8.1580 2.3390
-4.1145 -7.0741 2.3390
-0.6062 -8.1596 2.3390
4.2531 -6.5765 2.3390
4.8555 -5.4813 2.1866
5.6250 -4.6898 2.1866
6.2670 -3.7917 2.1866
6.7670 -2.8073 2.1866
6.7221 -1.6619 2.0663
6.7235 -0.6169 2.0143
6.6410 0.3947 1.9844
6.7289 1.4358 2.0519
6.8606 2.5908 2.1866
6.3945 3.5931 2.1866
5.7829 4.5141 2.1866
5.0396 5.3327 2.1866
4.4730 6.4506 2.3390
3.4532 7.0503 2.3390
2.3547 7.4897 2.3390
1.2025 7.7589 2.3390
0.0228 7.8516 2.3390
-1.1573 7.7657 2.3390
-2.3111 7.5033 2.3390
-3.4121 7.0703 2.3390
-4.4354 6.4765 2.3390
-5.3577 5.7358 2.3390
-5.7745 4.5618 2.1934
-6.3736 3.6303 2.1866
-6.8455 2.6308 2.1866
-7.1618 1.5718 2.1866
-7.3152 0.4775 2.1866
-7.3023 -0.6272 2.1866
-7.1237 -1.7172 2.1866
-6.7833 -2.7679 2.1866
-6.2891 -3.7553 2.1866
-5.7683 -4.7526 2.2314
-5.2280 -5.8330 2.3390
-4.2914 -6.5517 2.3390
-3.2575 -7.1216 2.3390
-2.1500 -7.5297 2.3390
-0.9937 -7.7670 2.3390
0.1850 -7.8281 2.3390
1.3596 -7.7114 2.3390
2.5033 -7.4199 2.3390
3.5905 -6.9599 2.3390
4.5963 -6.3418 2.3390
5.1398 -5.2161 2.1866
5.8663 -4.3850 2.1866
6.4598 -3.4541 2.1866
6.9069 -2.4444 2.1866
6.7226 -1.2879 2.0424
6.7239 -0.2585 2.0074
6.7280 0.7597 2.0194
7.0803 1.9086 2.1867
6.7140 2.9514 2.1866
6.1953 3.9276 2.1866
5.5356 4.8148 2.1866
4.7499 5.5928 2.1866
4.1247 6.6790 2.3390
3.0744 7.2237 2.3390
1.9541 7.6042 2.3390
0.7892 7.8118 2.3390
-0.3937 7.8417 2.3390
-1.5676 7.6933 2.3390
-2.7058 7.3700 2.3390
-3.7823 6.8791 2.3390
-4.7726 6.2319 2.3390
-5.6541 5.4431 2.3390
-5.9894 4.2357 2.1866
-6.5568 3.2869 2.1866
-6.9750 2.2637 2.1866
-7.2346 1.1895 2.1866
-7.3297 0.0887 2.1866
-7.2582 -1.0137 2.1866
-7.0220 -2.0926 2.1866
-6.6265 -3.1236 2.1866
-6.0806 -4.0834 2.1866
-5.7518 -5.2756 2.3304
-4.9109 -6.1019 2.3390
-3.9376 -6.7699 2.3390
-2.8750 -7.2842 2.3390
-1.7474 -7.6331 2.3390
-0.5802 -7.8088 2.3390
0.6001 -7.8073 2.3390
4.0766 -6.3035 2.3390
4.7146 -5.3221 2.2151
5.3915 -4.4951 2.1866
6.0068 -3.6343 2.1866
6.4860 -2.6906 2.1866
6.8178 -1.6855 2.1866
6.9954 -0.6419 2.1867
6.6409 0.3947 2.0704
6.8726 1.4665 2.1866
6.5755 2.4832 2.1866
6.1287 3.4438 2.1866
5.5425 4.3264 2.1866
4.8301 5.1110 2.1866
4.2870 6.1823 2.3390
3.3096 6.7570 2.3390
2.2567 7.1782 2.3390
1.1525 7.4361 2.3390
-1.1092 7.4427 2.3390
0.0219 7.5250 2.3390
-3.2702 6.7762 2.3390
-4.2509 6.2072 2.3390
-2.2149 7.1912 2.3390
-5.7596 4.5501 2.2826
-5.1348 5.4972 2.3390
-6.5610 2.5214 2.1866
-6.8641 1.5065 2.1866
-6.1086 3.4794 2.1866
-7.0112 0.4577 2.1866
-6.9989 -0.6011 2.1866
-6.8278 -1.6459 2.1866
-6.5016 -2.6529 2.1866
-5.7532 -4.7401 2.3220
-5.0110 -5.5908 2.3390
-6.0280 -3.5993 2.1866
-4.1133 -6.2797 2.3390
-3.1223 -6.8259 2.3390
-2.0607 -7.2172 2.3390
-0.9525 -7.4447 2.3390
0.1773 -7.5032 2.3390
3.4414 -6.6709 2.3390
2.3995 -7.1119 2.3390
4.4055 -6.0786 2.3390
5.6227 -4.2029 2.1866
6.1916 -3.3106 2.1866
6.6200 -2.3429 2.1866
4.9264 -4.9995 2.1866
7.0202 -0.2698 2.1867
6.8983 -1.3215 2.1866
6.9823 0.7885 2.1867
5.9377 3.7643 2.1866
4.7063 5.5415 2.2605
5.3054 4.6146 2.1866
3.9531 6.4013 2.3390
2.9465 6.9233 2.3390
1.8728 7.2879 2.3390
6.4349 2.8287 2.1866
6.7854 1.8291 2.1865
-0.3773 7.5156 2.3390
-1.5024 7.3733 2.3390
0.7564 7.4869 2.3390
-4.5741 5.9727 2.3390
-2.5932 7.0635 2.3390
-5.7735 4.0830 2.1992
1.3031 -7.3914 2.3390
-6.2842 3.1503 2.1866
-6.9567 -0.9715 2.1866
-5.4190 5.2168 2.3390
-6.3513 -2.9939 2.1866
-7.0251 0.0851 2.1866
-3.6250 6.5930 2.3390
-3.7741 -6.4889 2.3390
-5.8282 -3.9138 2.1866
-5.5334 -5.0753 2.3390
-6.9339 1.1401 2.1866
-0.5561 -7.4847 2.3390
-2.7557 -6.9818 2.3390
-6.7304 -2.0057 2.1866
-6.6851 2.1697 2.1866
-4.7071 -5.8485 2.3390
-1.6749 -7.3162 2.3390
0.5752 -7.4832 2.3390
3.9130 -6.0504 2.3390
4.6988 -5.3043 2.3000
5.1750 -4.3146 2.1866
5.7656 -3.4883 2.1866
6.2255 -2.5825 2.1866
6.5441 -1.6178 2.1866
6.7142 -0.6160 2.1866
6.7318 0.4001 2.1866
6.5965 1.4076 2.1866
6.3112 2.3834 2.1866
5.8823 3.3054 2.1866
5.3196 4.1525 2.1866
4.7132 4.9874 2.2231
4.1146 5.9337 2.3390
3.1765 6.4853 2.3390
2.1660 6.8895 2.3390
1.1061 7.1371 2.3390
0.0210 7.2224 2.3390
-1.0645 7.1434 2.3390
-3.1387 6.5037 2.3390
-4.0800 5.9576 2.3390
-4.9284 5.2762 2.3390
-2.1258 6.9020 2.3390
-5.8631 3.3396 2.1866
-6.2973 2.4201 2.1866
-6.5883 1.4460 2.1866
-5.6645 4.4750 2.3390
-6.7178 -0.5769 2.1866
-6.5535 -1.5797 2.1866
-6.7295 0.4393 2.1866
-6.2405 -2.5463 2.1866
-5.7859 -3.4547 2.1866
-4.8099 -5.3663 2.3390
-5.5626 -4.5831 2.3390
-2.9970 -6.5520 2.3390
-1.9780 -6.9275 2.3390
-0.9143 -7.1459 2.3390
0.1702 -7.2020 2.3390
1.2509 -7.0947 2.3390
3.3033 -6.4032 2.3390
-3.9482 -6.0276 2.3390
4.2286 -5.8345 2.3390
2.3032 -6.8265 2.3390
5.3970 -4.0341 2.1866
4.7311 -4.8014 2.1877
6.6212 -1.2684 2.1866
6.3541 -2.2487 2.1866
5.9429 -3.1777 2.1866
6.7379 -0.2589 2.1866
6.7016 0.7568 2.1866
5.6990 3.6130 2.1866
6.5129 1.7557 2.1866
5.0921 4.4291 2.1866
2.8280 6.6449 2.3390
3.7941 6.1439 2.3390
-0.3621 7.2133 2.3390
4.6738 5.5033 2.3390
0.7259 7.1858 2.3390
1.7975 6.9948 2.3390
-1.4420 7.0768 2.3390
-5.7591 4.0729 2.2856
-2.4889 6.7794 2.3390
-5.2011 5.0072 2.3390
6.1762 2.7150 2.1866
-6.4164 2.0825 2.1866
-6.0316 3.0237 2.1866
-6.6773 -0.9325 2.1866
-4.3901 5.7326 2.3390
-5.7646 -3.8711 2.2532
-6.6553 1.0943 2.1866
-5.3113 -4.8715 2.3390
-4.5181 -5.6137 2.3390
-3.6226 -6.2284 2.3390
-6.7429 0.0817 2.1866
-6.0963 -2.8736 2.1866
-6.4601 -1.9251 2.1866
-2.6451 -6.7016 2.3390
-1.6076 -7.0226 2.3390
0.5521 -7.1829 2.3390
-3.4792 6.3279 2.3390
-0.5338 -7.1843 2.3390
3.7608 -5.8152 2.3390
4.5927 -5.1844 2.3390
4.9738 -4.1468 2.1866
5.5414 -3.3526 2.1866
5.9834 -2.4821 2.1866
6.2896 -1.5549 2.1866
6.4530 -0.5920 2.1866
6.4699 0.3846 2.1866
6.3397 1.3528 2.1866
6.0655 2.2907 2.1866
5.6533 3.1767 2.1866
5.1125 3.9909 2.1866
4.6979 4.9712 2.3057
3.9543 5.7027 2.3390
3.0527 6.2327 2.3390
2.0816 6.6212 2.3390
1.0630 6.8591 2.3390
0.0202 6.9410 2.3390
-1.0231 6.8652 2.3390
-2.0430 6.6332 2.3390
-3.0164 6.2505 2.3390
-3.9211 5.7257 2.3390
-4.7365 5.0708 2.3390
-5.4440 4.3009 2.3390
-5.7671 3.2850 2.2379
-6.0522 2.3260 2.1866
-6.4676 0.4223 2.1866
-6.3319 1.3898 2.1866
-6.4564 -0.5545 2.1866
-6.2986 -1.5182 2.1866
-5.9978 -2.4472 2.1866
-5.7625 -3.4407 2.2659
-5.3463 -4.4048 2.3390
-3.7947 -5.7933 2.3390
-4.6229 -5.1577 2.3390
-2.8805 -6.2973 2.3390
-1.9012 -6.6582 2.3390
0.1636 -6.9221 2.3390
1.2022 -6.8190 2.3390
3.1749 -6.1543 2.3390
-0.8787 -6.8681 2.3390
2.2136 -6.5611 2.3390
4.7055 -4.7753 2.2639
4.0643 -5.6077 2.3390
5.1871 -3.8773 2.1866
6.3636 -1.2191 2.1866
6.1070 -2.1612 2.1866
6.4408 0.7274 2.1866
5.7118 -3.0541 2.1866
4.8938 4.2567 2.1866
5.9358 2.6094 2.1866
6.2594 1.6874 2.1866
4.4918 5.2890 2.3390
6.4757 -0.2488 2.1866
2.7179 6.3861 2.3390
3.6464 5.9046 2.3390
0.6977 6.9059 2.3390
-0.3480 6.9323 2.3390
-1.3858 6.8012 2.3390
1.7275 6.7224 2.3390
-2.3920 6.5154 2.3390
-3.3437 6.0815 2.3390
-4.2192 5.5094 2.3390
-4.9986 4.8122 2.3390
-5.6642 4.0058 2.3390
-6.1667 2.0015 2.1866
-6.4805 0.0785 2.1866
-5.7968 2.9060 2.1866
-6.4175 -0.8962 2.1866
-5.7504 -3.8615 2.3386
5.4771 3.4724 2.1866
-6.2088 -1.8502 2.1866
-4.3425 -5.3954 2.3390
-3.4818 -5.9862 2.3390
-5.8592 -2.7619 2.1866
-6.3963 1.0518 2.1866
-1.5452 -6.7496 2.3390
-2.5423 -6.4411 2.3390
0.5307 -6.9037 2.3390
-0.5130 -6.9050 2.3390
-5.1048 -4.6821 2.3390
3.6190 -5.5959 2.3390
4.4195 -4.9889 2.3390
4.7862 -3.9904 2.1866
5.3324 -3.2261 2.1866
5.7576 -2.3884 2.1866
6.0522 -1.4962 2.1866
6.2095 -0.5697 2.1866
6.2257 0.3701 2.1866
6.1004 1.3018 2.1866
5.8365 2.2042 2.1866
5.4398 3.0568 2.1866
4.9194 3.8402 2.1866
4.5858 4.8526 2.3390
3.8050 5.4873 2.3390
