ply
format ascii 1.0
element vertex 2069
property float32 x
property float32 y
property float32 z
end_header
-21.3327 5.6362 -2.4927
-21.3293 2.2987 -2.4226
-21.3324 -0.9305 -2.4102
-21.3388 -4.2043 -2.4539
-7.6891 -2.7674 -0.9216
-21.3325 -11.5552 -2.7351
-21.3431 -21.9016 -3.4452
-6.3886 -19.3000 -2.2888
-21.3433 -16.1368 -3.0154
-6.1558 -36.1385 -4.1266
23.1624 -34.8962 -4.7167
11.4489 -12.6164 -1.9191
13.4982 -10.9811 -1.9607
22.7357 -13.3820 -2.9737
29.3560 -11.7608 -3.5660
35.1201 -8.2269 -4.0691
22.2013 -1.7611 -2.5134
20.7523 4.7003 -2.4034
22.2514 1.6002 -2.5188
20.5961 8.0758 -2.4999
20.5749 11.9073 -2.6873
20.2535 16.2307 -2.9351
19.7688 29.3144 -4.0008
-7.1594 14.3299 -1.8130
-21.3128 16.3576 -3.0383
-21.3281 7.8509 -2.5682
-7.8340 48.1039 -5.5175
-21.3336 4.3637 -2.4597
-21.3328 -2.1432 -2.4197
-7.2622 -1.8627 -0.8458
-7.5423 -3.2068 -0.9242
-21.3309 11.7547 -2.7533
-21.3480 -18.1241 -3.1555
-21.3342 -13.1672 -2.8259
-21.3321 1.0850 -2.4117
-7.6489 -28.3952 -3.3105
-21.2580 -24.4365 -3.6485
-8.5334 -19.4173 -2.3880
22.7408 -38.8613 -4.5313
11.3739 -14.0539 -1.8200
12.2454 -11.1691 -1.6690
23.0395 -15.3769 -2.7903
24.0290 -11.2414 -2.6735
33.7091 -9.9358 -3.5432
22.1824 -3.0285 -2.2583
22.2326 0.3392 -2.2440
22.2832 3.7380 -2.2813
20.5763 6.7538 -2.1876
20.6312 10.4306 -2.3363
20.5861 14.6670 -2.5555
16.3822 30.0658 -3.4650
22.2500 29.2774 -3.7204
-7.8929 30.1736 -3.1573
-6.4311 14.9271 -1.6451
-8.4826 13.5978 -1.6218
-21.3332 18.3791 -2.8477
-21.3272 13.3770 -2.5451
-21.3328 5.6363 -2.2287
-21.3326 9.2529 -2.3497
-21.3295 2.2988 -2.1659
-21.3387 -4.2042 -2.1936
-21.3325 -0.9304 -2.1547
-7.6218 -2.7432 -0.8166
-21.3435 -16.1368 -2.6952
-21.3435 -21.9018 -3.0793
-21.3328 -11.5553 -2.4448
-6.1420 -36.0572 -3.6796
-6.6649 -20.1348 -2.1339
22.4351 -33.8003 -4.0831
13.4576 -10.9479 -1.7472
23.0664 -13.5765 -2.6966
12.9242 -14.2420 -1.9362
22.2013 -1.7610 -2.2469
22.2514 1.6002 -2.2518
20.7519 4.7003 -2.1487
20.5961 8.0759 -2.2351
20.5749 11.9074 -2.4028
27.3507 -10.9573 -2.9698
19.7687 29.3143 -3.5776
18.0923 38.1957 -4.2775
33.6080 -7.8726 -3.4808
-7.8151 47.9885 -4.9223
-21.3134 16.3581 -2.7168
-21.3281 7.8510 -2.2962
-21.3335 4.3637 -2.1990
-21.3309 11.7547 -2.4618
-21.3329 -2.1431 -2.1631
-21.3322 1.0851 -2.1561
-7.1991 -1.8464 -0.7495
-7.1142 14.2395 -1.6110
-21.3347 -13.1674 -2.5260
-7.5012 -3.1893 -0.8216
-21.2580 -24.4364 -3.2608
-8.4403 -19.2053 -2.1109
-7.6485 -28.3936 -2.9584
-21.3481 -18.1241 -2.8204
21.1993 -36.2270 -3.7230
12.5771 -15.5405 -1.7738
12.4798 -11.3829 -1.4992
23.0395 -15.3768 -2.4596
24.0293 -11.2414 -2.3568
33.5215 -9.8803 -3.1062
22.1824 -3.0284 -1.9910
22.2326 0.3393 -1.9785
22.2832 3.7381 -2.0116
20.5763 6.7538 -1.9291
20.6312 10.4306 -2.0603
20.5860 14.6670 -2.2537
22.2499 29.2774 -3.2813
16.8668 30.9554 -3.1466
-7.8233 29.9078 -2.7604
-6.4117 14.8823 -1.4467
-8.4236 13.5034 -1.4205
-21.3332 18.3792 -2.5115
-21.3271 13.3771 -2.2445
-21.3322 9.2528 -2.0721
-21.3328 5.6364 -1.9652
-21.3296 2.2989 -1.9097
-21.3326 -0.9304 -1.8998
-21.3385 -4.2041 -1.9339
-7.7945 -2.8053 -0.7362
-21.3332 -11.5554 -2.1552
-21.3436 -16.1368 -2.3757
-21.3438 -21.9021 -2.7142
-6.9915 -21.1212 -1.9729
-6.3971 -37.5547 -3.3776
22.4352 -33.8003 -3.5987
12.7555 -14.0561 -1.6843
12.7152 -10.3439 -1.4551
23.0664 -13.5764 -2.3771
28.2159 -11.3038 -2.7008
32.4943 -7.6116 -2.9670
22.2013 -1.7609 -1.9810
22.2514 1.6003 -1.9854
20.7516 4.7003 -1.8947
20.5961 8.0760 -1.9710
20.5749 11.9074 -2.1190
19.7686 29.3143 -3.1554
16.3322 34.4801 -3.4058
-7.8950 48.4790 -4.3861
-7.3064 14.6242 -1.4594
-21.3139 16.3586 -2.3961
-21.3308 11.7548 -2.1710
-21.3282 7.8512 -2.0249
-21.3334 4.3638 -1.9390
-21.3324 1.0852 -1.9010
-21.3330 -2.1430 -1.9072
-7.3326 -1.8807 -0.6730
-7.4359 -3.1615 -0.7180
-21.3352 -13.1676 -2.2267
-21.3483 -18.1241 -2.4860
-21.2580 -24.4362 -2.8741
-8.3844 -19.0779 -1.8481
-7.6481 -28.3920 -2.6072
20.1311 -34.4015 -3.0605
12.6842 -15.6728 -1.5487
12.8717 -11.7403 -1.3388
23.0395 -15.3767 -2.1296
24.0295 -11.2414 -2.0407
33.0553 -9.7428 -2.6525
22.1824 -3.0283 -1.7243
22.2737 0.3400 -1.7167
22.2832 3.7382 -1.7424
20.4203 6.7027 -1.6584
20.5523 10.3909 -1.7780
20.5859 14.6670 -1.9525
22.2498 29.2774 -2.8432
16.8654 30.9529 -2.7264
-8.2818 31.6605 -2.5322
-6.8099 15.8065 -1.3315
-8.3656 13.4104 -1.2224
-21.3271 13.3771 -1.9445
-21.3332 18.3793 -2.1760
-21.3317 9.2527 -1.7950
-21.3329 5.6365 -1.7023
-21.3327 -0.9303 -1.6454
-21.3298 2.2990 -1.6541
-7.6327 -2.7470 -0.6243
-21.3384 -4.2040 -1.6748
-21.3437 -16.1368 -2.0570
-21.3335 -11.5555 -1.8661
-21.3442 -21.9023 -2.3499
-6.9794 -21.0848 -1.7048
-6.3870 -37.4953 -2.9191
22.4353 -33.8003 -3.1154
13.0248 -14.3528 -1.4890
12.5548 -10.2134 -1.2439
32.2455 -7.5532 -2.5497
22.2013 -1.7608 -1.7156
22.2514 1.6004 -1.7196
20.7513 4.7003 -1.6411
20.5023 8.0393 -1.6996
20.5749 11.9075 -1.8357
19.7685 29.3144 -2.7341
16.9374 35.7578 -3.0606
23.0664 -13.5763 -2.0582
28.2162 -11.3038 -2.3387
-7.8951 48.4798 -3.8010
-21.3144 16.3591 -2.0760
-21.3308 11.7549 -1.8808
-7.2707 14.5527 -1.2584
-21.3283 7.8513 -1.7541
-21.3325 1.0853 -1.6466
-21.3333 4.3639 -1.6796
-7.1931 -1.8449 -0.5717
-21.3357 -13.1678 -1.9280
-21.3331 -2.1430 -1.6517
-21.3484 -18.1241 -2.1524
-7.3718 -3.1342 -0.6163
-21.2580 -24.4361 -2.4883
-8.3292 -18.9523 -1.5893
-7.6477 -28.3904 -2.2568
21.1655 -36.1689 -2.7194
11.4739 -14.1772 -1.1840
12.2495 -11.1727 -1.0769
22.6495 -15.1163 -1.7697
24.0297 -11.2414 -1.7252
35.2393 -10.3864 -2.3908
22.1824 -3.0283 -1.4580
22.2737 0.3401 -1.4518
22.2832 3.7383 -1.4736
19.9893 6.5613 -1.3731
20.2022 10.2140 -1.4785
20.5209 14.6208 -1.6467
22.2497 29.2774 -2.4059
16.8654 30.9530 -2.3072
-8.1711 31.2376 -2.1144
-6.7933 15.7680 -1.1240
-8.3085 13.3189 -1.0274
-21.3331 18.3794 -1.8412
-21.3270 13.3772 -1.6451
-21.3313 9.2525 -1.5184
-21.3329 5.6366 -1.4399
-21.3300 2.2991 -1.3990
-21.3328 -0.9302 -1.3914
-21.3382 -4.2039 -1.4161
-7.8421 -2.8224 -0.5423
-21.3338 -11.5556 -1.5776
-21.3439 -16.1368 -1.7387
-21.3445 -21.9026 -1.9862
-6.9675 -21.0485 -1.4382
-6.3759 -37.4297 -2.4625
20.0040 -43.0432 -3.0794
10.4763 -15.7831 -1.2295
13.3084 -14.6652 -1.2859
13.3375 -10.8501 -1.1170
22.5691 -13.2836 -1.7024
28.2165 -11.3038 -1.9772
33.3496 -7.8116 -2.2296
22.1766 -1.7588 -1.4492
22.2514 1.6005 -1.4543
20.7510 4.7003 -1.3881
20.0591 7.8656 -1.4066
20.3067 11.7524 -1.5328
16.2676 24.1231 -1.9039
16.9369 35.7571 -2.5900
-7.8113 47.9655 -3.1827
-7.2353 14.4821 -1.0598
-21.3149 16.3596 -1.7565
-21.3308 11.7549 -1.5912
-21.3283 7.8514 -1.4838
-21.3332 4.3639 -1.4206
-21.3332 -2.1429 -1.3967
-7.0590 -1.8104 -0.4744
-7.3090 -3.1074 -0.5166
-21.3362 -13.1680 -1.6299
-21.3485 -18.1241 -1.8194
-21.2580 -24.4360 -2.1031
-21.3327 1.0854 -1.3925
-8.5086 -19.3605 -1.3721
-7.6473 -28.3887 -1.9070
21.1655 -36.1687 -2.2218
11.7096 -14.4683 -0.9873
12.0938 -11.0306 -0.8688
21.9973 -14.6810 -1.4047
24.0299 -11.2414 -1.4102
34.8099 -10.2597 -1.9307
22.1824 -3.0282 -1.1922
22.2737 0.3402 -1.1873
22.2832 3.7384 -1.2053
19.6592 6.4530 -1.1048
19.7542 9.9876 -1.1829
20.0156 14.2609 -1.3143
17.5010 23.0289 -1.5489
16.8654 30.9532 -1.8886
-8.0863 30.9133 -1.7130
-6.7768 15.7298 -0.9179
-8.2522 13.2287 -0.8353
-21.3331 18.3795 -1.5068
-21.3270 13.3772 -1.3462
-21.3309 9.2524 -1.2423
-21.3330 5.6367 -1.1779
-21.3329 -0.9301 -1.1379
-21.3381 -4.2038 -1.1579
-21.3301 2.2992 -1.1443
-21.3341 -11.5556 -1.2895
-21.3440 -16.1368 -1.4210
-7.7913 -2.8041 -0.4405
-21.3449 -21.9028 -1.6231
10.5966 -15.9644 -1.0161
21.0303 -45.2512 -2.6449
23.1410 -18.8251 -1.5838
21.9329 -12.9090 -1.3522
28.2168 -11.3038 -1.6163
22.2424 -1.7639 -1.1885
33.8329 -7.9247 -1.8493
6.6423 0.4778 -0.3551
19.6353 7.6995 -1.1265
19.8404 11.4826 -1.2254
20.7506 4.7003 -1.1354
21.3753 23.2108 -1.6891
16.9369 35.7572 -2.1202
16.8498 24.9866 -1.6142
-7.8580 48.2521 -2.6211
-7.2004 14.4122 -0.8633
-21.3307 11.7550 -1.3020
-21.3284 7.8515 -1.2140
-21.3328 1.0855 -1.1389
-21.3331 4.3640 -1.1620
-21.3154 16.3601 -1.4375
-6.9298 -1.7772 -0.3808
-7.3480 -3.1240 -0.4246
-21.3487 -18.1241 -1.4869
-21.2580 -24.4359 -1.7185
-21.3367 -13.1682 -1.3322
-8.3700 -19.0450 -1.1027
-7.6469 -28.3871 -1.5578
-21.3333 -2.1428 -1.1421
21.1663 -36.1701 -1.7249
11.9548 -14.7713 -0.7827
12.6509 -11.5386 -0.7058
6.6382 -4.4303 -0.3293
24.0302 -11.2414 -1.0956
6.7229 -1.9814 -0.2898
6.7243 -0.9179 -0.2809
6.7255 0.1027 -0.2787
6.7296 1.1290 -0.2831
6.7309 2.2094 -0.2942
19.3262 9.7713 -0.9004
23.3139 22.6071 -1.3528
17.0175 22.3928 -1.1726
16.8685 30.9589 -1.4708
-8.2826 31.6642 -1.3664
-26.2743 42.1193 -2.0707
-21.3331 18.3796 -1.1728
-21.3269 13.3773 -1.0476
-21.3304 9.2523 -0.9665
-21.3331 5.6368 -0.9162
19.5353 13.9188 -0.9983
-21.3303 2.2993 -0.8898
-21.3330 -0.9300 -0.8846
-7.7413 -2.7860 -0.3401
-21.3380 -4.2037 -0.9000
-21.3441 -16.1368 -1.1037
-21.3452 -21.9030 -1.2604
-21.3345 -11.5557 -1.0018
21.0303 -45.2510 -2.0531
10.7196 -16.1496 -0.7980
21.3882 -12.5883 -1.0243
6.7234 -1.5748 -0.2856
22.1166 -17.9917 -1.1756
6.7220 -2.6928 -0.2992
6.6422 0.4778 -0.2761
6.7301 1.5245 -0.2864
6.7247 -0.5333 -0.2793
6.7315 2.6396 -0.3004
6.7779 5.4319 -0.3616
16.8498 24.9867 -1.2568
19.3956 11.2253 -0.9321
20.7327 22.5131 -1.2754
-7.7286 47.4577 -2.0077
16.9385 35.7607 -1.6511
-21.3159 16.3606 -1.1188
-21.3307 11.7551 -1.0131
-21.3330 4.3640 -0.9038
-21.3284 7.8516 -0.9444
-7.1658 14.3431 -0.6690
-21.3334 -2.1427 -0.8879
-21.3330 1.0856 -0.8856
-21.3372 -13.1684 -1.0349
-21.3377 -5.4723 -0.9112
-21.2580 -24.4357 -1.3344
-21.3488 -18.1241 -1.1548
-8.8004 -20.0242 -0.9000
-7.3087 -3.1073 -0.3281
-7.6465 -28.3855 -1.2091
21.1668 -36.1707 -1.2284
12.1233 -14.9794 -0.5654
6.7199 -6.1290 -0.2671
6.6382 -4.4302 -0.2347
6.7214 -3.1443 -0.2185
6.7229 -1.9814 -0.2067
6.7242 -0.9179 -0.2005
6.7255 0.1028 -0.1990
6.7295 1.1290 -0.2022
6.7309 2.2094 -0.2103
6.7324 3.4039 -0.2243
6.7342 4.7981 -0.2462
6.7412 6.5369 -0.2799
16.5604 21.7914 -0.8168
16.8716 30.9647 -1.0533
-26.2742 42.1193 -1.4826
-8.0786 30.8843 -0.9546
-21.3331 18.3797 -0.8392
-21.3269 13.3774 -0.7493
-21.3300 9.2522 -0.6910
-21.3331 5.6369 -0.6548
-21.3304 2.2994 -0.6357
-21.3331 -0.9300 -0.6317
-21.3378 -4.2036 -0.6423
-7.6297 -2.7459 -0.2391
-21.3348 -11.5558 -0.7144
-21.3443 -16.1368 -0.7867
-21.3456 -21.9033 -0.8981
21.0332 -45.2572 -1.4622
6.6230 -9.9777 -0.3511
6.7183 -7.4030 -0.2934
6.7207 -5.4671 -0.2546
6.7204 -3.9553 -0.2294
6.7220 -2.6928 -0.2134
6.7234 -1.5748 -0.2038
6.6422 0.4778 -0.1972
6.7247 -0.5332 -0.1994
6.7300 1.5245 -0.2046
6.7330 3.8968 -0.2314
6.7314 2.6396 -0.2148
6.7422 7.3212 -0.2968
16.8498 24.9868 -0.8997
16.9403 35.7646 -1.1824
6.7349 5.3974 -0.2571
-7.8269 48.0617 -1.4563
-7.1023 14.2159 -0.4748
-21.3285 7.8517 -0.6751
-21.3329 4.3641 -0.6458
-21.3331 1.0856 -0.6325
-21.3165 16.3611 -0.8005
-21.3306 11.7551 -0.7246
-21.3334 -2.1427 -0.6339
-21.3376 -5.4722 -0.6502
-21.3377 -13.1687 -0.7378
-7.2699 -3.0908 -0.2328
-21.3490 -18.1241 -0.8230
-21.2580 -24.4356 -0.9507
-7.6461 -28.3839 -0.8608
6.7048 -11.4573 -0.2319
6.7171 -8.2995 -0.1868
6.7198 -6.1289 -0.1595
6.6381 -4.4302 -0.1402
6.7214 -3.1442 -0.1307
6.7228 -1.9814 -0.1237
6.7241 -0.9178 -0.1201
6.7254 0.1028 -0.1194
6.7295 1.1290 -0.1215
6.7308 2.2094 -0.1264
6.7323 3.4039 -0.1350
6.7341 4.7980 -0.1483
6.7412 6.5368 -0.1687
6.7441 8.8744 -0.2007
6.7481 12.3850 -0.2543
-8.0020 30.5914 -0.5711
-21.3331 18.3798 -0.5058
-26.2741 42.1193 -0.8948
-21.3268 13.3775 -0.4513
-21.3295 9.2521 -0.4158
-21.3332 5.6370 -0.3936
-21.3306 2.2995 -0.3817
-21.3377 -4.2035 -0.3848
-21.3332 -0.9299 -0.3788
-21.3351 -11.5559 -0.4271
-7.5884 -2.7309 -0.1423
-21.3459 -21.9035 -0.5360
-21.3444 -16.1368 -0.4699
6.7011 -14.4186 -0.2776
6.6229 -9.9775 -0.2094
6.7182 -7.4029 -0.1751
6.7206 -5.4671 -0.1520
6.7203 -3.9553 -0.1371
6.7233 -1.5747 -0.1220
6.7246 -0.5332 -0.1195
6.7219 -2.6927 -0.1276
6.7300 1.5245 -0.1229
6.6421 0.4779 -0.1183
6.7330 3.8968 -0.1393
6.7349 5.3974 -0.1549
6.7314 2.6396 -0.1292
6.7456 10.0031 -0.2173
6.7505 14.2517 -0.2845
6.7422 7.3212 -0.1790
-7.3955 14.8028 -0.2985
-21.3170 16.3616 -0.4823
-7.8767 48.3677 -0.8854
-21.3306 11.7552 -0.4362
-21.3333 1.0857 -0.3796
-21.3328 4.3642 -0.3880
-21.3286 7.8518 -0.4061
-21.3374 -5.4721 -0.3894
-21.3382 -13.1689 -0.4410
-21.3491 -18.1242 -0.4914
-21.3335 -2.1426 -0.3800
-7.2316 -3.0744 -0.1385
-21.2580 -24.4355 -0.5672
-7.6457 -28.3823 -0.5127
6.6935 -28.9029 -0.1662
6.7131 -16.8800 -0.1020
6.7047 -11.4571 -0.0748
6.7170 -8.2993 -0.0605
6.7197 -6.1288 -0.0518
6.6381 -4.4301 -0.0458
6.7213 -3.1441 -0.0429
6.7228 -1.9813 -0.0408
6.7241 -0.9178 -0.0398
6.7254 0.1028 -0.0398
6.7294 1.1291 -0.0407
6.7308 2.2094 -0.0426
6.7323 3.4039 -0.0457
6.7341 4.7980 -0.0504
6.7411 6.5368 -0.0576
6.7440 8.8744 -0.0688
6.7480 12.3848 -0.0874
6.7648 33.8943 -0.2153
6.7581 18.6329 -0.1232
-8.2652 31.5979 -0.2034
-26.2740 42.1193 -0.3073
-21.3268 13.3775 -0.1533
-21.3331 18.3799 -0.1726
-21.3291 9.2520 -0.1406
-21.3332 5.6371 -0.1325
-21.3307 2.2996 -0.1278
-21.3332 -0.9298 -0.1261
-21.3375 -4.2033 -0.1274
-7.5475 -2.7162 -0.0466
-21.3355 -11.5560 -0.1400
-21.3445 -16.1368 -0.1532
-21.3463 -21.9038 -0.1740
6.7075 -22.9701 -0.1342
6.7010 -14.4183 -0.0894
6.6228 -9.9773 -0.0676
6.7206 -5.4670 -0.0495
6.7181 -7.4028 -0.0567
6.7219 -2.6927 -0.0419
6.7203 -3.9552 -0.0448
6.7246 -0.5332 -0.0397
6.7233 -1.5747 -0.0403
6.6421 0.4779 -0.0395
6.7299 1.5245 -0.0413
6.7329 3.8968 -0.0472
6.7313 2.6396 -0.0436
6.7421 7.3211 -0.0612
6.7348 5.3974 -0.0528
6.7455 10.0030 -0.0746
6.7508 22.5066 -0.1462
6.7225 47.5454 -0.2993
6.7504 14.2516 -0.0978
-7.7890 47.8293 -0.3021
-21.3175 16.3621 -0.1643
-7.3707 14.7534 -0.1023
-21.3286 7.8519 -0.1371
-21.3327 4.3642 -0.1303
-21.3305 11.7553 -0.1480
-21.3335 1.0858 -0.1268
-21.3336 -2.1425 -0.1263
-21.3387 -13.1691 -0.1442
-21.3492 -18.1242 -0.1600
-7.1936 -3.0583 -0.0453
-21.2580 -24.4354 -0.1839
-7.6452 -28.3806 -0.1648
6.6752 -34.7643 -0.1983
-21.3373 -5.4719 -0.1287
6.7106 -18.9315 -0.1127
6.6933 -28.9019 0.1848
6.7130 -16.8796 0.1129
6.7046 -11.4569 0.0822
6.7169 -8.2992 0.0659
6.7197 -6.1287 0.0558
6.6380 -4.4300 0.0487
6.7212 -3.1441 0.0449
6.7227 -1.9813 0.0421
6.7240 -0.9178 0.0405
6.7253 0.1028 0.0398
6.7294 1.1291 0.0400
6.7322 3.4039 0.0436
6.7340 4.7980 0.0474
6.7410 6.5368 0.0535
6.7440 8.8743 0.0631
6.7479 12.3847 0.0795
6.7580 18.6325 0.1113
6.7646 33.8932 0.1937
-8.2293 31.4608 0.1823
-26.2738 42.1193 0.2801
6.7307 2.2095 0.0412
-21.3331 18.3800 0.1606
-21.3268 13.3776 0.1446
-21.3287 9.2519 0.1345
-21.3333 5.6372 0.1286
-21.3333 -0.9297 0.1265
-21.3374 -4.2032 0.1299
-7.5071 -2.7016 0.0480
-21.3309 2.2997 0.1261
-21.3446 -16.1368 0.1634
-21.3358 -11.5561 0.1472
-21.3466 -21.9040 0.1879
6.7073 -22.9694 0.1490
6.7009 -14.4180 0.0987
6.6227 -9.9771 0.0741
6.7205 -5.4669 0.0530
6.7180 -7.4027 0.0615
6.7202 -3.9551 0.0474
6.7218 -2.6926 0.0437
6.7232 -1.5746 0.0414
6.6420 0.4779 0.0393
6.7299 1.5245 0.0404
6.7313 2.6396 0.0420
6.7329 3.8968 0.0448
6.7347 5.3974 0.0494
6.7420 7.3211 0.0566
6.7245 -0.5331 0.0401
6.7454 10.0029 0.0682
6.7225 47.5454 0.2689
6.7503 14.2514 0.0888
6.7506 22.5061 0.1318
-7.3227 14.6573 0.0922
-21.3180 16.3626 0.1537
-21.3305 11.7553 0.1402
-21.3287 7.8520 0.1319
-21.3326 4.3643 0.1273
-21.3336 1.0859 0.1259
-21.3337 -2.1425 0.1274
-7.7260 -3.2846 0.0507
-21.3372 -5.4718 0.1320
-21.3391 -13.1693 0.1525
-21.3494 -18.1242 0.1714
-7.6448 -28.3790 0.1829
-21.2580 -24.4352 0.1993
6.6749 -34.7628 0.2206
6.7104 -18.9310 0.1249
6.6931 -28.9008 0.5359
6.7129 -16.8792 0.3279
6.7045 -11.4567 0.2393
6.7168 -8.2990 0.1922
6.7196 -6.1286 0.1634
6.6379 -4.4300 0.1431
6.7212 -3.1440 0.1328
6.7227 -1.9812 0.1251
6.7240 -0.9177 0.1208
6.7253 0.1029 0.1194
6.7293 1.1291 0.1208
6.7307 2.2095 0.1251
6.7322 3.4039 0.1328
6.7339 4.7980 0.1453
6.7410 6.5367 0.1646
6.7439 8.8742 0.1950
6.7478 12.3845 0.2464
6.7578 18.6322 0.3459
6.7643 33.8920 0.6027
-26.2737 42.1193 0.8676
-21.3331 18.3801 0.4939
-21.3267 13.3777 0.4425
-21.3282 9.2518 0.4096
-21.3333 5.6372 0.3898
-21.3310 2.2997 0.3800
-21.3334 -0.9297 0.3792
-21.3373 -4.2031 0.3873
-21.3357 -7.6781 0.4049
-21.3361 -11.5562 0.4343
-21.3448 -16.1368 0.4801
-21.3470 -21.9043 0.5498
6.7072 -22.9687 0.4321
6.7008 -14.4177 0.2869
6.6226 -9.9770 0.2158
6.7180 -7.4026 0.1798
6.7204 -5.4668 0.1556
6.7202 -3.9551 0.1397
6.7218 -2.6926 0.1294
6.7232 -1.5746 0.1231
6.7245 -0.5331 0.1199
6.6420 0.4779 0.1181
6.7298 1.5245 0.1220
6.7312 2.6396 0.1275
6.7328 3.8968 0.1369
6.7347 5.3973 0.1515
6.7419 7.3211 0.1744
6.7453 10.0028 0.2110
6.7501 14.2512 0.2754
6.7504 22.5056 0.4099
6.7225 47.5454 0.8372
-21.8627 43.7610 0.8542
-34.4316 35.8505 0.8707
-21.3185 16.3631 0.4717
-21.3305 11.7554 0.4285
-21.3287 7.8521 0.4008
-21.3325 4.3644 0.3850
-21.3338 1.0860 0.3787
-21.3338 -2.1424 0.3812
-21.3370 -5.4717 0.3927
-21.3367 -9.0708 0.4144
-21.3396 -13.1695 0.4492
-21.3495 -18.1242 0.5029
-21.2580 -24.4351 0.5826
-7.6444 -28.3774 0.5307
6.6746 -34.7613 0.6395
6.7103 -18.9305 0.3626
6.6929 -28.8997 0.8871
6.7127 -16.8788 0.5429
6.7044 -11.4564 0.3965
6.7168 -8.2989 0.3186
6.7195 -6.1285 0.2711
6.6379 -4.4299 0.2376
6.7211 -3.1440 0.2206
6.7226 -1.9812 0.2080
6.7239 -0.9177 0.2011
6.7252 0.1029 0.1990
6.7293 1.1291 0.2016
6.7306 2.2095 0.2089
6.7321 3.4039 0.2222
6.7339 4.7980 0.2432
6.7409 6.5367 0.2758
6.7438 8.8742 0.3270
6.7477 12.3844 0.4134
6.7577 18.6319 0.5805
6.7640 33.8908 1.0118
-26.2736 42.1193 1.4553
-29.9051 34.8859 1.3483
-21.3331 18.3802 0.8273
-21.3267 13.3777 0.7406
-21.3278 9.2517 0.6849
-21.3334 5.6374 0.6510
-21.3312 2.2998 0.6340
-21.3335 -0.9296 0.6321
-21.3371 -4.2030 0.6448
-21.3362 -7.6782 0.6733
-21.3365 -11.5562 0.7216
-21.3449 -16.1368 0.7969
-21.3473 -21.9045 0.9120
6.7070 -22.9680 0.7154
6.7006 -14.4174 0.4751
6.7179 -7.4024 0.2982
6.7204 -5.4667 0.2581
6.6225 -9.9768 0.3576
6.7201 -3.9550 0.2320
6.7231 -1.5746 0.2049
6.7244 -0.5331 0.1998
6.6419 0.4779 0.1969
6.7298 1.5246 0.2037
6.7312 2.6397 0.2131
6.7327 3.8968 0.2290
6.7346 5.3973 0.2537
6.7217 -2.6925 0.2152
6.7419 7.3210 0.2922
6.7500 14.2510 0.4621
6.7502 22.5051 0.6881
6.7452 10.0027 0.3538
6.7224 47.5454 1.4057
-21.8626 43.7611 1.4334
-28.4004 40.2679 1.4451
-21.3190 16.3636 0.7899
-30.5746 31.8347 1.2958
-21.3304 11.7555 0.7168
-21.3324 4.3644 0.6428
-21.3339 -2.1423 0.6350
-21.3369 -5.4716 0.6535
-21.3371 -9.0709 0.6889
-21.3288 7.8522 0.6699
-21.3401 -13.1697 0.7462
-21.3496 -18.1242 0.8344
-21.2580 -24.4350 0.9661
-21.3339 1.0861 0.6317
6.6744 -34.7598 1.0585
-7.6440 -28.3757 0.8786
6.7101 -18.9300 0.6004
6.6927 -28.8987 1.2385
6.7126 -16.8784 0.7581
6.7043 -11.4562 0.5537
6.7167 -8.2988 0.4451
6.7194 -6.1284 0.3789
6.6378 -4.4298 0.3321
6.7211 -3.1439 0.3085
6.7225 -1.9811 0.2911
6.7239 -0.9177 0.2815
6.7252 0.1029 0.2787
6.7292 1.1291 0.2824
6.7306 2.2095 0.2929
6.7321 3.4039 0.3115
6.7338 4.7980 0.3411
6.7408 6.5367 0.3870
6.7437 8.8741 0.4590
6.7476 12.3843 0.5805
6.7575 18.6315 0.8153
6.7638 33.8897 1.4212
-24.5323 39.3280 1.9080
-26.7967 31.2600 1.6960
-21.3331 18.3803 1.1609
-21.3266 13.3778 1.0388
-21.3335 5.6375 0.9125
-21.3274 9.2516 0.9603
-21.3314 2.2999 0.8882
-21.3370 -4.2029 0.9024
-21.3366 -7.6782 0.9420
-21.3368 -11.5563 1.0091
-21.3450 -16.1368 1.1139
-21.3477 -21.9047 1.2744
-27.2367 -38.0249 1.9503
-21.3336 -0.9295 0.8851
6.7068 -22.9673 0.9989
6.6224 -9.9766 0.4994
6.7178 -7.4023 0.4166
6.7005 -14.4170 0.6634
6.7203 -5.4666 0.3608
6.7200 -3.9550 0.3244
6.7216 -2.6925 0.3009
6.7244 -0.5331 0.2797
6.6419 0.4780 0.2758
6.7297 1.5246 0.2855
6.7311 2.6397 0.2988
6.7327 3.8968 0.3211
6.7345 5.3973 0.3559
6.7418 7.3210 0.4101
6.7451 10.0026 0.4967
6.7501 22.5046 0.9664
6.7231 -1.5745 0.2867
6.7499 14.2508 0.6489
6.7224 47.5454 1.9746
-21.8626 43.7613 2.0130
-27.4546 28.5863 1.6331
-21.3304 11.7555 1.0054
-21.3289 7.8523 0.9392
-25.4714 36.1152 1.8196
-21.3323 4.3645 0.9008
-21.3196 16.3641 1.1083
-21.3367 -5.4714 0.9144
-21.3341 1.0862 0.8847
-21.3376 -9.0710 0.9636
-21.3340 -2.1423 0.8891
-21.2580 -24.4349 1.3498
-26.0147 -41.0335 2.0263
-21.3498 -18.1242 1.1662
-7.6436 -28.3741 1.2268
-21.3406 -13.1699 1.0433
6.6741 -34.7583 1.4778
6.7100 -18.9295 0.8383
6.6924 -28.8976 1.5902
6.7125 -16.8779 0.9735
6.7042 -11.4560 0.7112
6.7166 -8.2986 0.5717
6.7194 -6.1283 0.4867
6.6378 -4.4297 0.4268
6.7210 -3.1439 0.3965
6.7225 -1.9811 0.3742
6.7238 -0.9177 0.3620
6.7251 0.1029 0.3585
6.7292 1.1292 0.3633
6.7305 2.2095 0.3769
6.7320 3.4039 0.4010
6.7337 4.7980 0.4392
6.7407 6.5366 0.4984
6.7436 8.8740 0.5912
6.7475 12.3841 0.7477
6.7574 18.6312 1.0503
6.7635 33.8885 1.8310
2.0324 44.1035 2.3390
-4.6226 43.9069 2.3390
-11.1707 42.7062 2.3390
-16.8971 39.2216 2.2635
-21.3103 34.1629 2.1349
-23.8481 27.8205 1.9439
-21.3331 18.3804 1.4948
-21.3266 13.3778 1.3374
-21.3269 9.2515 1.2359
-21.3335 5.6376 1.1741
-21.3337 -0.9294 1.1383
-21.3368 -4.2028 1.1603
-21.3370 -7.6783 1.2110
-21.3315 2.3000 1.1427
-21.3452 -16.1368 1.4312
-21.3371 -11.5564 1.2969
-21.3480 -21.9050 1.6372
-23.9725 -33.4676 2.2048
-19.5862 -38.4983 2.3144
-6.8489 -40.2047 2.1866
-13.6522 -41.2413 2.3285
-0.7757 -43.6154 2.3390
5.4147 -40.4205 2.1866
6.7004 -14.4167 0.8520
6.7066 -22.9666 1.2826
6.7177 -7.4022 0.5352
6.6223 -9.9764 0.6414
6.7200 -3.9549 0.4169
6.7202 -5.4666 0.4635
6.7230 -1.5745 0.3685
6.7216 -2.6924 0.3868
6.6418 0.4780 0.3548
6.7243 -0.5330 0.3597
6.7311 2.6397 0.3845
6.7297 1.5246 0.3673
6.7326 3.8968 0.4134
6.7345 5.3973 0.4583
6.7450 10.0025 0.6398
6.7417 7.3209 0.5281
6.7499 22.5041 1.2450
6.7498 14.2506 0.8359
-0.4630 44.1484 2.3390
-13.5647 42.0029 2.3390
-6.6335 40.7347 2.1866
-18.9156 37.8626 2.2436
5.7778 40.8646 2.1866
-21.3201 16.3646 1.4271
-21.3303 11.7556 1.2942
-24.5868 25.6004 1.8835
-21.3289 7.8524 1.2088
-21.3322 4.3645 1.1590
-21.3341 -2.1422 1.1434
-22.4694 31.8589 2.0675
-21.3380 -9.0711 1.2386
-21.3342 1.0863 1.1381
-21.3499 -18.1242 1.4983
-21.3366 -5.4713 1.1756
-21.2580 -24.4347 1.7339
-21.3411 -13.1701 1.3407
-17.4156 -39.6259 2.3196
-4.8841 -43.3499 2.3390
-22.6273 -35.6904 2.2636
1.6902 -43.5895 2.3390
-7.6432 -28.3725 1.5752
6.6738 -34.7568 1.8975
6.7098 -18.9290 1.0765
6.6922 -28.8965 1.9424
6.7123 -16.8775 1.1892
6.7041 -11.4558 0.8688
6.7165 -8.2985 0.6985
6.7193 -6.1282 0.5947
6.6377 -4.4297 0.5215
6.7210 -3.1438 0.4846
6.7224 -1.9811 0.4574
6.7238 -0.9176 0.4426
6.7251 0.1030 0.4383
6.7291 1.1292 0.4443
6.7305 2.2095 0.4610
6.7320 3.4039 0.4906
6.7337 4.7979 0.5373
6.7407 6.5366 0.6099
6.7435 8.8740 0.7236
6.7474 12.3840 0.9152
6.7572 18.6308 1.2856
6.5983 33.0612 2.1866
1.6602 36.0284 2.3390
-3.7762 35.8680 2.3390
-8.5310 32.6147 2.1866
-13.9800 32.4506 2.2923
-17.8151 28.5598 2.1845
-21.1390 24.6602 2.1088
-21.3331 18.3805 1.8292
-21.3265 13.3779 1.6363
-21.3265 9.2514 1.5120
-21.3336 5.6376 1.4362
-21.3317 2.3001 1.3974
-21.3338 -0.9294 1.3919
-21.3367 -4.2027 1.4185
-21.3374 -7.6784 1.4803
-21.3453 -16.1368 1.7490
-21.3374 -11.5565 1.5851
-21.3484 -21.9052 2.0004
-20.1179 -28.0862 2.2605
-16.0911 -31.6284 2.3228
-5.7643 -33.8378 2.2479
-11.2041 -33.8458 2.3343
4.6970 -35.0626 2.3168
-0.6350 -35.7073 2.3390
6.7003 -14.4164 1.0407
6.6222 -9.9762 0.7836
6.7177 -7.4021 0.6539
6.7202 -5.4665 0.5664
6.7064 -22.9659 1.5667
6.7199 -3.9548 0.5095
6.7230 -1.5745 0.4505
6.7243 -0.5330 0.4398
6.6418 0.4780 0.4339
6.7296 1.5246 0.4492
6.7215 -2.6924 0.4728
6.7310 2.6397 0.4704
6.7326 3.8968 0.5057
6.7344 5.3973 0.5608
6.7449 10.0024 0.7831
6.7497 14.2504 1.0231
6.7416 7.3209 0.6463
6.7497 22.5036 1.5240
-0.3782 36.0649 2.3390
-5.7543 35.3357 2.3218
4.7276 33.4375 2.1901
-15.4124 30.8504 2.2375
-19.1340 27.1298 2.1548
-10.9998 34.0608 2.3217
-21.3206 16.3651 1.7463
-21.9619 22.8674 2.0589
-21.3303 11.7557 1.5834
-21.3290 7.8526 1.4786
-21.3344 1.0863 1.3918
-21.3321 4.3646 1.4176
-21.3342 -2.1421 1.3980
-21.3365 -5.4712 1.4372
-21.3416 -13.1704 1.6385
-21.3501 -18.1242 1.8309
-21.3384 -9.0712 1.5139
-21.2580 -24.4346 2.1185
-7.6428 -28.3709 1.9240
-14.3025 -32.5422 2.3270
-3.9985 -35.4897 2.3390
1.3837 -35.6861 2.3390
6.7097 -18.9285 1.3149
6.2960 -32.7894 2.1866
-19.0273 -30.0119 2.3255
6.3755 -27.5290 2.1866
6.7122 -16.8771 1.4052
6.7040 -11.4556 1.0266
6.7164 -8.2983 0.8254
6.7192 -6.1281 0.7028
6.6376 -4.4296 0.6164
6.7209 -3.1438 0.5728
6.7224 -1.9810 0.5408
6.7237 -0.9176 0.5233
6.7250 0.1030 0.5183
6.7291 1.1292 0.5255
6.7304 2.2095 0.5452
6.7319 3.4039 0.5803
6.7336 4.7979 0.6357
6.7406 6.5366 0.7215
6.7435 8.8739 0.8561
6.7473 12.3838 1.0829
6.7571 18.6305 1.5213
1.4030 30.4454 2.3390
5.5759 27.9384 2.1866
-3.1910 30.3099 2.3390
-11.8312 27.4630 2.2956
-15.4460 24.7619 2.2411
-7.2092 27.5613 2.1866
-19.6791 22.9572 2.3228
-21.3331 18.3806 2.1641
-21.3265 13.3780 1.9357
-21.3336 5.6377 1.6986
-21.3318 2.3002 1.6526
-21.3260 9.2513 1.7884
-21.3339 -0.9293 1.6459
-7.6360 -2.7478 0.6263
-21.3366 -4.2026 1.6771
-21.3378 -11.5566 1.8737
-21.3454 -16.1368 2.0672
-17.6145 -24.5911 2.3390
-19.7446 -20.2596 2.1866
-13.7096 -26.9471 2.3386
-8.8815 -26.8296 2.1866
-0.5374 -30.2196 2.3390
4.0131 -29.9575 2.3390
-5.0760 -29.7972 2.3390
6.7002 -14.4161 1.2298
6.7063 -22.9652 1.8511
6.6222 -9.9761 0.9260
6.7176 -7.4020 0.7727
6.7199 -3.9548 0.6022
6.7201 -5.4664 0.6694
6.7242 -0.5330 0.5200
6.7229 -1.5744 0.5327
6.6417 0.4780 0.5130
6.7215 -2.6923 0.5589
6.7309 2.6397 0.5564
6.7296 1.5246 0.5313
6.7416 7.3208 0.7646
6.7448 10.0024 0.9265
6.7495 14.2502 1.2106
6.7495 22.5031 1.8033
6.7325 3.8968 0.5983
4.2665 30.1762 2.3390
-0.3196 30.4762 2.3390
6.7344 5.3973 0.6634
-8.7544 27.1082 2.1866
-4.8985 30.0803 2.3390
-13.1922 26.4065 2.2663
-21.3211 16.3656 2.0660
-21.3302 11.7557 1.8730
-21.3290 7.8527 1.7490
-17.0672 24.1994 2.2742
-19.8428 20.6610 2.2009
-21.3343 -2.1420 1.6530
-21.3363 -5.4711 1.6991
-21.3388 -9.0713 1.7897
-21.3320 4.3647 1.6765
-21.3345 1.0864 1.6458
-21.3502 -18.1242 2.1640
-19.6950 -22.6380 2.3196
-12.1655 -27.6799 2.3389
-21.3421 -13.1706 1.9368
-7.3508 -27.2867 2.1866
-3.3840 -30.0353 2.3390
1.1711 -30.2016 2.3390
5.3284 -27.7498 2.1866
6.7095 -18.9280 1.5537
-16.1946 -25.5438 2.3390
5.5248 -23.8557 2.1866
6.7121 -16.8767 1.6216
6.7039 -11.4554 1.1847
6.7164 -8.2982 0.9526
6.7192 -6.1280 0.8112
6.6376 -4.4295 0.7115
6.7208 -3.1437 0.6612
6.7223 -1.9810 0.6242
6.7237 -0.9176 0.6041
6.7250 0.1030 0.5984
6.7290 1.1292 0.6068
6.7304 2.2095 0.6296
6.7318 3.4039 0.6701
6.7336 4.7979 0.7342
6.7405 6.5365 0.8334
6.7434 8.8738 0.9889
6.7472 12.3837 1.2509
6.7569 18.6302 1.7574
4.8267 24.1842 2.1866
1.2144 26.3540 2.3390
-2.7622 26.2368 2.3390
-6.2405 23.8580 2.1866
-10.4353 24.2228 2.3390
-13.9556 22.3727 2.3390
-17.1556 20.0134 2.3390
-19.6985 16.9723 2.3081
-20.8581 13.0843 2.1866
-21.3256 9.2512 2.0653
-21.3337 5.6378 1.9615
-21.3320 2.3003 1.9083
-21.3340 -0.9292 1.9003
-21.3364 -4.2025 1.9362
-7.6276 -2.7448 0.7222
-21.3381 -11.5567 2.1629
-19.7167 -14.9054 2.2040
-18.2998 -18.7770 2.3390
-15.2627 -21.3077 2.3390
-11.8815 -23.3538 2.3390
-4.3987 -25.8212 2.3390
-0.4657 -26.1875 2.3390
-7.6963 -23.2491 2.1866
3.4777 -25.9604 2.3390
6.7000 -14.4158 1.4192
6.6221 -9.9759 1.0687
6.7175 -7.4018 0.8918
6.8643 -23.5064 2.1865
6.7198 -3.9547 0.6951
6.7214 -2.6923 0.6452
6.7200 -5.4663 0.7726
6.7229 -1.5744 0.6149
6.6417 0.4780 0.5924
6.7242 -0.5329 0.6004
6.7309 2.6397 0.6425
6.7295 1.5246 0.6135
6.7324 3.8967 0.6909
6.7415 7.3208 0.8832
6.7343 5.3972 0.7662
6.7494 14.2500 1.3984
6.7447 10.0023 1.0702
3.6932 26.1213 2.3390
-0.2767 26.3807 2.3390
7.0848 23.6211 2.1867
-4.2402 26.0382 2.3390
-7.5782 23.4660 2.1866
-11.7863 23.5924 2.3390
-18.2565 19.0095 2.3390
-19.7172 15.1345 2.2067
-21.3302 11.7558 2.1632
-15.1957 21.5460 2.3390
-21.3319 4.3647 1.9359
-21.3291 7.8528 2.0198
-21.3347 1.0865 1.9004
-21.3362 -5.4710 1.9616
-21.3392 -9.0714 2.0660
-20.8735 -12.8813 2.1866
-21.3344 -2.1420 1.9085
-17.2072 -19.7783 2.3390
-14.0326 -22.1336 2.3390
-10.5419 -23.9858 2.3390
-6.3699 -23.6455 2.1866
-2.9325 -26.0277 2.3390
-19.6981 -16.7217 2.3044
1.0148 -26.1720 2.3390
4.7124 -24.5419 2.2315
6.7094 -18.9275 1.7930
4.8816 -21.0786 2.1904
6.7119 -16.8763 1.8384
6.7038 -11.4551 1.3432
6.7163 -8.2981 1.0801
6.7191 -6.1279 0.9197
6.6375 -4.4295 0.8068
6.7208 -3.1437 0.7498
6.7223 -1.9809 0.7079
6.7236 -0.9175 0.6852
6.7249 0.1030 0.6787
6.7290 1.1292 0.6882
6.7303 2.2095 0.7142
6.7318 3.4039 0.7602
6.7335 4.7979 0.8329
6.7405 6.5365 0.9455
6.7433 8.8738 1.1219
6.7471 12.3836 1.4192
4.5503 22.7998 2.3390
6.7568 18.6298 1.9939
1.0703 23.2264 2.3390
-2.4344 23.1230 2.3390
-5.7592 22.0182 2.2897
-12.3000 19.7187 2.3390
-15.1210 17.6400 2.3390
-17.5956 15.1606 2.3390
-8.5978 19.9576 2.1866
-19.6677 12.3376 2.3390
-19.9030 8.6341 2.1866
-20.9655 5.5406 2.1866
-21.3341 -0.9291 2.1553
-21.3321 2.3004 2.1645
-21.2459 -4.1846 2.1866
-19.7056 -10.6724 2.2650
-18.4532 -13.9501 2.3390
-7.6192 -2.7417 0.8180
-13.4616 -18.7932 2.3390
-16.1397 -16.5604 2.3390
-10.4798 -20.5985 2.3390
-6.7885 -20.5068 2.1866
-3.8799 -22.7758 2.3390
-0.4108 -23.0990 2.3390
3.0675 -22.8986 2.3390
6.0547 -20.7339 2.1866
6.6999 -14.4155 1.6089
6.7174 -7.4017 1.0112
6.6220 -9.9757 1.2116
6.7200 -5.4662 0.8760
6.7214 -2.6922 0.7316
6.7228 -1.5743 0.6973
6.7241 -0.5329 0.6809
6.6416 0.4781 0.6719
6.7197 -3.9546 0.7882
6.7295 1.5246 0.6959
6.7308 2.6397 0.7288
6.7342 5.3972 0.8692
6.7414 7.3207 1.0020
6.7446 10.0022 1.2143
6.7493 14.2498 1.5867
6.2436 20.8167 2.1866
6.7324 3.8967 0.7838
3.2549 23.0213 2.3390
-3.7370 22.9480 2.3390
-6.6789 20.6814 2.1866
-10.3879 20.7933 2.3390
-13.3932 18.9903 2.3390
-0.2438 23.2499 2.3390
-18.4216 14.1401 2.3390
-19.7059 10.8606 2.2671
-20.3557 7.4944 2.1866
-16.0916 16.7553 2.3390
-21.3349 1.0866 2.1554
-21.3345 -2.1419 2.1645
-21.2413 4.3463 2.1866
-20.9718 -5.3775 2.1866
-19.6910 -12.1515 2.3390
-17.6329 -14.9685 2.3390
-15.1762 -17.4438 2.3390
-19.9156 -8.4661 2.1866
-12.3769 -19.5218 2.3390
-5.7654 -21.4016 2.2437
-8.6924 -19.7776 2.1866
-2.5866 -22.9580 2.3390
0.8951 -23.0853 2.3390
4.3567 -22.6893 2.3390
6.7092 -18.9270 2.0327
4.6617 -20.1287 2.3390
6.7118 -16.8759 2.0557
6.7037 -11.4549 1.5020
6.7162 -8.2979 1.2078
6.7190 -6.1278 1.0286
6.6375 -4.4294 0.9023
6.7207 -3.1436 0.8386
6.7222 -1.9809 0.7918
6.7236 -0.9175 0.7664
6.7249 0.1031 0.7592
6.7289 1.1292 0.7699
6.7303 2.2095 0.7990
6.7317 3.4039 0.8505
6.7334 4.7979 0.9318
6.7404 6.5365 1.0578
6.7432 8.8737 1.2553
6.7470 12.3834 1.5880
6.6218 18.2579 2.1866
4.0666 20.3760 2.3390
0.9565 20.7570 2.3390
-2.1756 20.6647 2.3390
-5.2578 20.1012 2.3390
-7.6839 17.8363 2.1866
-10.9928 17.6231 2.3390
-13.5144 15.7658 2.3390
-15.7266 13.5503 2.3390
-17.5793 11.0276 2.3390
-19.0304 8.2556 2.3390
-19.6999 5.2062 2.2984
-19.7111 2.1256 2.2372
-19.7128 -0.8585 2.2276
-19.7052 -3.8811 2.2684
-7.6108 -2.7387 0.9139
-18.1949 -9.8541 2.3390
-16.5001 -12.4736 2.3390
-14.4320 -14.8081 2.3390
-12.0377 -16.8052 2.3390
-8.7609 -17.2199 2.1866
-6.0707 -18.3384 2.1866
-3.4697 -20.3678 2.3390
-0.3674 -20.6569 2.3390
2.7432 -20.4777 2.3390
5.4145 -18.5416 2.1866
6.6998 -14.4152 1.7992
6.6219 -9.9755 1.3549
6.7174 -7.4016 1.1308
6.7199 -5.4661 0.9797
6.7197 -3.9546 0.8815
6.7213 -2.6922 0.8183
6.7228 -1.5743 0.7800
6.7241 -0.5329 0.7616
6.6416 0.4781 0.7516
6.7294 1.5247 0.7784
6.7308 2.6397 0.8153
6.7323 3.8967 0.8769
6.7342 5.3972 0.9725
6.7413 7.3207 1.1211
6.7446 10.0021 1.3586
6.7492 14.2497 1.7753
5.5799 18.6039 2.1866
2.9088 20.5738 2.3390
-0.2179 20.7780 2.3390
-3.3397 20.5084 2.3390
-5.9689 18.4829 2.1866
-8.6789 17.3725 2.1866
-11.9700 16.9723 2.3390
-14.3821 14.9754 2.3390
-16.4651 12.6384 2.3390
-18.1718 10.0153 2.3390
-19.4636 7.1660 2.3390
-19.7053 4.0321 2.2692
-19.7128 1.0040 2.2278
-19.7111 -1.9789 2.2369
-19.6998 -5.0513 2.2973
-19.0475 -8.0971 2.3390
-17.6065 -10.8650 2.3390
-15.7669 -13.3843 2.3390
-13.5706 -15.5982 2.3390
-11.0678 -17.4570 2.3390
-7.7733 -17.6862 2.1866
-5.3747 -19.9512 2.3390
-2.3132 -20.5307 2.3390
0.8005 -20.6447 2.3390
3.8961 -20.2904 2.3390
6.4539 -18.2069 2.1866
4.2149 -18.1994 2.3390
6.4546 -16.2294 2.1866
6.7036 -11.4547 1.6613
6.7161 -8.2978 1.3359
6.7190 -6.1277 1.1377
6.6374 -4.4293 0.9980
6.7207 -3.1436 0.9277
6.7222 -1.9808 0.8759
6.7235 -0.9175 0.8478
6.7248 0.1031 0.8399
6.7289 1.1293 0.8518
6.7302 2.2095 0.8840
6.7317 3.4039 0.9410
6.7334 4.7979 1.0310
6.7403 6.5364 1.1705
6.7431 8.8736 1.3890
6.7468 12.3833 1.7572
5.9840 16.4994 2.1866
3.6748 18.4133 2.3390
0.8643 18.7575 2.3390
-1.9660 18.6741 2.3390
-4.7513 18.1649 2.3390
-6.9438 16.1184 2.1866
-9.9342 15.9261 2.3390
-12.2132 14.2480 2.3390
-15.8878 9.9666 2.3390
-17.1999 7.4616 2.3390
-18.1197 4.7887 2.3390
-18.6265 2.0087 2.3390
-18.7094 -0.8147 2.3390
-18.3670 -3.6175 2.3390
-7.6024 -2.7356 1.0099
-14.2129 12.2461 2.3390
-14.9170 -11.2768 2.3390
-13.0477 -13.3877 2.3390
-16.4486 -8.9083 2.3390
-7.9210 -15.5689 2.1866
-10.8834 -15.1937 2.3390
-3.1372 -18.4155 2.3390
-5.7573 -17.3913 2.2935
2.4803 -18.5149 2.3390
-0.3322 -18.6771 2.3390
4.8955 -16.7643 2.1866
6.6218 -9.9753 1.4986
6.6997 -14.4148 1.9899
6.7198 -5.4660 1.0836
6.7196 -3.9545 0.9750
6.7213 -2.6922 0.9051
6.7227 -1.5743 0.8628
6.7240 -0.5329 0.8426
6.7173 -7.4015 1.2507
6.7294 1.5247 0.8612
6.6415 0.4781 0.8315
6.7307 2.6397 0.9021
6.7341 5.3972 1.0761
6.7323 3.8967 0.9702
6.7413 7.3207 1.2405
6.7491 14.2495 1.9645
6.7445 10.0020 1.5034
5.0424 16.8120 2.1866
-0.1969 18.7764 2.3390
-3.0180 18.5328 2.3390
2.6286 18.5920 2.3390
-5.7521 17.8116 2.3317
-10.8174 15.3381 2.3390
-12.9975 13.5338 2.3390
-7.8430 15.6994 2.1866
-14.8805 11.4222 2.3390
-17.5916 6.4769 2.3390
-16.4235 9.0518 2.3390
-18.7075 0.9529 2.3390
-18.3587 3.7566 2.3390
-18.6308 -1.8703 2.3390
-17.2190 -7.3197 2.3390
-18.1307 -4.6489 2.3390
-14.2543 -12.1003 2.3390
-12.2692 -14.1022 2.3390
-10.0066 -15.7831 2.3390
-7.0281 -15.9906 2.1866
-4.8595 -18.0387 2.3390
-2.0915 -18.5629 2.3390
0.7238 -18.6660 2.3390
3.5227 -18.3456 2.3390
-15.9169 -9.8223 2.3390
5.8353 -16.4616 2.1866
3.8452 -16.6032 2.3390
5.8885 -14.8059 2.1866
6.7035 -11.4545 1.8210
6.7160 -8.2976 1.4644
6.7189 -6.1276 1.2471
6.6373 -4.4292 1.0940
6.7206 -3.1435 1.0169
6.7221 -1.9808 0.9602
6.7235 -0.9174 0.9295
6.7248 0.1031 0.9209
6.7288 1.1293 0.9339
6.7301 2.2096 0.9692
6.7316 3.4039 1.0318
6.7333 4.7979 1.1305
6.7402 6.5364 1.2835
6.7430 8.8736 1.5231
5.4569 15.0459 2.1866
6.7467 12.3831 1.9268
0.7882 17.1049 2.3390
3.3511 16.7911 2.3390
-1.7928 17.0288 2.3390
-4.3327 16.5647 2.3390
-8.4690 13.5771 2.1866
-11.1378 12.9934 2.3390
-12.9617 11.1681 2.3390
-6.3321 14.6986 2.1866
-14.4895 9.0895 2.3390
-15.6866 6.8052 2.3390
-16.5259 4.3675 2.3390
-16.9888 1.8322 2.3390
-16.7532 -3.2995 2.3390
-17.0650 -0.7430 2.3390
-15.0043 -8.1261 2.3390
-13.6076 -10.2868 2.3390
-7.5940 -2.7325 1.1059
-9.9285 -13.8606 2.3390
-11.9027 -12.2128 2.3390
-5.3564 -16.1804 2.3390
-2.8620 -16.8004 2.3390
-0.3030 -17.0391 2.3390
2.2628 -16.8912 2.3390
-7.2261 -14.2032 2.1866
6.7161 -14.4502 2.1866
4.6993 -16.0924 2.3007
6.6217 -9.9752 1.6426
6.7198 -5.4660 1.1878
6.7172 -7.4014 1.3710
6.7212 -2.6921 0.9923
6.7196 -3.9544 1.0689
6.7226 -1.5742 0.9459
6.6415 0.4781 0.9116
6.7293 1.5247 0.9443
6.7240 -0.5328 0.9237
6.7307 2.6397 0.9891
6.7340 5.3972 1.1799
6.7412 7.3206 1.3602
6.7322 3.8967 1.0638
6.8502 14.4631 2.1865
4.7096 15.7023 2.2395
6.7444 10.0019 1.6485
2.3970 16.9540 2.3390
-0.1796 17.1222 2.3390
-2.7521 16.9001 2.3390
-5.2616 16.2929 2.3390
-9.2219 13.0758 2.1866
-11.8531 12.3422 2.3390
-13.5706 10.4167 2.3390
-14.9782 8.2552 2.3390
-16.0440 5.9072 2.3390
-7.1521 14.3165 2.1866
-16.7441 3.4263 2.3390
-17.0628 0.8692 2.3390
-16.9935 -1.7059 2.3390
-16.5378 -4.2404 2.3390
-14.5195 -8.9599 2.3390
-15.7068 -6.6768 2.3390
-8.5339 -13.4602 2.1866
-11.1925 -12.8647 2.3390
-6.4116 -14.5880 2.1866
-1.9080 -16.9349 2.3390
-4.4333 -16.4566 2.3390
-13.0032 -11.0382 2.3390
3.2137 -16.7366 2.3390
0.6603 -17.0290 2.3390
5.3235 -15.0178 2.1866
3.5343 -15.2605 2.3390
5.4123 -13.6083 2.1866
6.7034 -11.4542 1.9812
6.7159 -8.2975 1.5933
6.7188 -6.1275 1.3569
6.6373 -4.4292 1.1904
6.7206 -3.1434 1.1065
6.7221 -1.9808 1.0448
6.7234 -0.9174 1.0114
6.7247 0.1031 1.0021
6.7288 1.1293 1.0162
6.7301 2.2096 1.0547
6.7316 3.4039 1.1228
6.7332 4.7979 1.2303
6.7402 6.5364 1.3968
6.7429 8.8735 1.6577
7.0348 12.9119 2.1867
5.0138 13.8242 2.1866
3.0789 15.4275 2.3390
0.7242 15.7158 2.3390
-1.6472 15.6459 2.3390
-3.9808 15.2195 2.3390
-5.8179 13.5051 2.1866
-7.7814 12.4749 2.1866
-10.2337 11.9387 2.3390
-11.9097 10.2618 2.3390
-14.4142 6.2533 2.3390
-13.3139 8.3521 2.3390
-15.1859 4.0134 2.3390
-15.6821 -0.6828 2.3390
-15.6116 1.6837 2.3390
-7.5855 -2.7295 1.2020
-15.3961 -3.0322 2.3390
-13.7896 -7.4681 2.3390
-12.5063 -9.4542 2.3390
-10.9396 -11.2245 2.3390
-8.5307 -11.9092 2.1866
-6.6417 -13.0543 2.1866
-2.6306 -15.4417 2.3390
-0.2785 -15.6612 2.3390
2.0798 -15.5252 2.3390
-4.9232 -14.8718 2.3390
4.3911 -15.0368 2.3390
6.1729 -13.2814 2.1866
6.7171 -7.4012 1.4917
6.6216 -9.9750 1.7872
6.7197 -5.4659 1.2924
6.7195 -3.9544 1.1630
6.7226 -1.5742 1.0293
6.7239 -0.5328 1.0052
6.6414 0.4782 0.9920
6.7292 1.5247 1.0276
6.7212 -2.6920 1.0797
6.7321 3.8967 1.1577
6.7306 2.6397 1.0764
6.7340 5.3971 1.2841
6.7443 10.0018 1.7941
6.7411 7.3206 1.4804
6.2941 13.2889 2.1866
2.2024 15.5772 2.3390
-0.1650 15.7317 2.3390
-2.5286 15.5276 2.3390
-4.8343 14.9698 2.3390
4.5193 15.0678 2.3390
-8.4732 12.0144 2.1866
-10.8910 11.3405 2.3390
-6.5714 13.1541 2.1866
-12.4694 9.5715 2.3390
-14.7428 5.4282 2.3390
-13.7631 7.5856 2.3390
-15.6799 0.7988 2.3390
-15.3865 3.1485 2.3390
-15.1983 -3.8968 2.3390
-14.4349 -6.1360 2.3390
-15.6166 -1.5676 2.3390
-13.3441 -8.2345 2.3390
-11.9509 -10.1448 2.3390
-10.2870 -11.8238 2.3390
-5.8930 -13.4080 2.1866
-4.0748 -15.1257 2.3390
0.6069 -15.6518 2.3390
-7.8436 -12.3713 2.1866
2.9538 -15.3831 2.3390
4.8929 -13.8031 2.1866
-1.7537 -15.5654 2.3390
3.2690 -14.1149 2.3390
5.0060 -12.5867 2.1866
6.8426 -11.6922 2.1865
6.7159 -8.2974 1.7226
6.7188 -6.1274 1.4671
6.6372 -4.4291 1.2871
6.7205 -3.1434 1.1964
6.7220 -1.9807 1.1297
6.7234 -0.9174 1.0936
6.7247 0.1032 1.0836
6.7287 1.1293 1.0989
6.7300 2.2096 1.1406
6.7315 3.4039 1.2142
6.7332 4.7978 1.3305
6.7401 6.5363 1.5106
6.7429 8.8734 1.7927
6.5045 11.9387 2.1866
4.7128 12.9944 2.2228
2.8469 14.2650 2.3390
0.6696 14.5315 2.3390
-1.5230 14.4669 2.3390
-3.6809 14.0727 2.3390
-5.7509 13.3496 2.3375
-7.1951 11.5351 2.1866
-8.8462 10.3202 2.1866
-11.0128 9.4890 2.3390
-13.3292 5.7826 2.3390
-12.3115 7.7233 2.3390
-14.0431 3.7115 2.3390
-14.4372 1.5571 2.3390
-14.5028 -0.6314 2.3390
-7.5771 -2.7264 1.2983
-12.7534 -6.9069 2.3390
-14.2385 -2.8042 2.3390
-11.5668 -8.7439 2.3390
-7.8902 -11.0148 2.1866
-6.1430 -12.0742 2.1866
-4.5536 -13.7553 2.3390
-2.4331 -14.2826 2.3390
-0.2576 -14.4856 2.3390
1.9237 -14.3598 2.3390
-10.1180 -10.3815 2.3390
5.7095 -12.2843 2.1866
4.0615 -13.9080 2.3390
6.7171 -7.4011 1.6128
6.6215 -9.9748 1.9322
6.7196 -5.4658 1.3974
6.7195 -3.9543 1.2575
6.7225 -1.5741 1.1129
6.7211 -2.6920 1.1674
6.6414 0.4782 1.0727
6.7292 1.5247 1.1112
6.7239 -0.5328 1.0869
6.7306 2.6397 1.1640
6.7321 3.8967 1.2520
6.7339 5.3971 1.3886
6.7442 10.0017 1.9403
6.7410 7.3205 1.6010
4.1787 13.9324 2.3390
5.8198 12.2878 2.1866
-0.1525 14.5462 2.3390
2.0364 14.4034 2.3390
-2.3380 14.3575 2.3390
-6.0763 12.1631 2.1866
-4.4700 13.8418 2.3390
-10.0707 10.4864 2.3390
-11.5304 8.8508 2.3390
-12.7270 7.0146 2.3390
-7.8349 11.1094 2.1866
-14.2288 2.9117 2.3390
-13.6332 5.0197 2.3390
-14.5005 0.7388 2.3390
-14.0558 -3.6039 2.3390
-13.3501 -5.6749 2.3390
-14.4422 -1.4497 2.3390
-12.3415 -7.6158 2.3390
-11.0532 -9.3827 2.3390
-7.2546 -11.4424 2.1866
-8.8945 -10.2232 2.1866
-3.7689 -13.9902 2.3390
-5.7549 -13.0936 2.3086
-1.6221 -14.3970 2.3390
0.5614 -14.4770 2.3390
2.7321 -14.2283 2.3390
4.7044 -13.2711 2.2729
3.0399 -13.1258 2.3390
4.7151 -11.8554 2.2147
6.3631 -10.8728 2.1866
6.7158 -8.2972 1.8524
6.7187 -6.1273 1.5777
6.6372 -4.4290 1.3841
6.7205 -3.1433 1.2867
6.7220 -1.9807 1.2150
6.7233 -0.9173 1.1761
6.7246 0.1032 1.1654
6.7286 1.1293 1.1819
6.7300 2.2096 1.2267
6.7314 3.4039 1.3060
6.7331 4.7978 1.4310
6.7400 6.5363 1.6248
6.7428 8.8734 1.9282
6.0472 11.0993 2.1866
4.6104 12.7121 2.3390
2.6467 13.2619 2.3390
0.6225 13.5096 2.3390
-1.4159 13.4496 2.3390
-3.4220 13.0831 2.3390
-5.3499 12.4187 2.3390
-6.6893 10.7241 2.1866
-8.2244 9.5948 2.1866
-10.2388 8.8222 2.3390
-11.4464 7.1806 2.3390
-12.3928 5.3764 2.3390
-13.4235 1.4479 2.3390
-13.0569 3.4509 2.3390
-13.4848 -0.5870 2.3390
-13.2394 -2.6073 2.3390
-11.8590 -6.4224 2.3390
-7.5687 -2.7234 1.3947
-10.7557 -8.1308 2.3390
-8.7956 -9.0246 2.1866
-7.3371 -10.2428 2.1866
-4.2345 -12.7914 2.3390
-2.2626 -13.2817 2.3390
-5.7715 -11.3439 2.2091
-0.2396 -13.4706 2.3390
1.7889 -13.3535 2.3390
3.7769 -12.9334 2.3390
5.3094 -11.4233 2.1866
6.6214 -9.9746 2.0779
6.7170 -7.4010 1.7343
6.7194 -3.9542 1.3523
6.7196 -5.4657 1.5027
6.7210 -2.6919 1.2555
6.7225 -1.5741 1.1969
6.7238 -0.5327 1.1689
6.7291 1.5247 1.1951
6.6413 0.4782 1.1536
6.7320 3.8967 1.3466
6.7338 5.3971 1.4936
6.7305 2.6397 1.2519
7.0662 10.4793 2.1867
6.7410 7.3205 1.7220
5.4106 11.4238 2.1866
1.8932 13.3905 2.3390
3.8849 12.9527 2.3390
-2.1736 13.3479 2.3390
-4.1557 12.8685 2.3390
-0.1418 13.5232 2.3390
-7.2841 10.3284 2.1866
-8.7528 9.1141 2.1866
-10.7201 8.2288 2.3390
-5.7683 11.5467 2.2327
-11.8327 6.5218 2.3390
-13.2296 2.7073 2.3390
-13.4825 0.6869 2.3390
-13.4286 -1.3479 2.3390
-13.0695 -3.3509 2.3390
-12.4136 -5.2767 2.3390
-11.4760 -7.0816 2.3390
-10.2782 -8.7248 2.3390
-8.2710 -9.5065 2.1866
-12.6756 4.6671 2.3390
-6.7462 -10.6403 2.1866
-5.4219 -12.3360 2.3390
-3.5048 -13.0098 2.3390
0.5220 -13.4625 2.3390
-1.5085 -13.3882 2.3390
2.5407 -13.2313 2.3390
4.5018 -12.6997 2.3390
2.8401 -12.2630 2.3390
4.6523 -11.6973 2.3390
5.9448 -10.1579 2.1866
6.7157 -8.2971 1.9828
6.7186 -6.1272 1.6887
6.6371 -4.4290 1.4816
6.7204 -3.1433 1.3773
6.7219 -1.9806 1.3005
6.7233 -0.9173 1.2590
6.7246 0.1032 1.2475
6.7286 1.1293 1.2652
6.7299 2.2096 1.3132
6.7314 3.4039 1.3981
6.7330 4.7978 1.5320
6.7400 6.5363 1.7394
6.7427 8.8733 2.0643
5.6484 10.3674 2.1866
4.3063 11.8738 2.3390
2.4721 12.3872 2.3390
0.5814 12.6186 2.3390
-1.3225 12.5625 2.3390
-3.1963 12.2203 2.3390
-4.9971 11.5997 2.3390
-6.2482 10.0170 2.1866
-7.6821 8.9622 2.1866
-8.9407 7.7037 2.1866
-10.6920 6.7074 2.3390
-11.5763 5.0222 2.3390
-12.1968 3.2236 2.3390
-12.5395 1.3525 2.3390
-12.5969 -0.5483 2.3390
-12.3679 -2.4357 2.3390
-7.5601 -2.7202 1.4912
-10.0482 -7.5959 2.3390
-11.0787 -5.9998 2.3390
-8.2172 -8.4311 2.1866
-6.8547 -9.5692 2.1866
-3.9562 -11.9505 2.3390
-5.7089 -11.2208 2.3390
-2.1139 -12.4086 2.3390
-0.2238 -12.5851 2.3390
3.5286 -12.0832 2.3390
4.9603 -10.6723 2.1866
6.5097 -9.8063 2.1866
1.6713 -12.4758 2.3390
6.7195 -5.4656 1.6085
6.7193 -3.9542 1.4475
6.7169 -7.4009 1.8564
6.7210 -2.6919 1.3439
6.7224 -1.5741 1.2812
6.6413 0.4782 1.2350
6.7291 1.5248 1.2794
6.7238 -0.5327 1.2513
6.7305 2.6397 1.3402
6.7320 3.8967 1.4416
6.7338 5.3971 1.5990
5.0538 10.6705 2.1866
3.6287 12.0985 2.3390
6.7409 7.3204 1.8435
1.7683 12.5074 2.3390
-0.1325 12.6313 2.3390
-3.8816 12.0198 2.3390
-2.0302 12.4676 2.3390
6.5999 9.7879 2.1866
-5.6443 11.2984 2.3390
-6.8038 9.6474 2.1866
-10.0135 7.6865 2.3390
-11.0529 6.0920 2.3390
-8.1757 8.5132 2.1866
-12.3582 2.5290 2.3390
-12.5946 0.6418 2.3390
-12.5445 -1.2591 2.3390
-11.5968 -4.9295 2.3390
-11.8404 4.3597 2.3390
-10.7211 -6.6157 2.3390
-7.7271 -8.8813 2.1866
-8.9765 -7.6198 2.1866
-6.3026 -9.9407 2.1866
-3.2744 -12.1545 2.3390
-1.4093 -12.5081 2.3390
-5.0655 -11.5250 2.3390
0.4877 -12.5776 2.3390
2.3737 -12.3616 2.3390
-12.2093 -3.1303 2.3390
4.2059 -11.8648 2.3390
2.6642 -11.5034 2.3390
4.3641 -10.9727 2.3390
5.5765 -9.5287 2.1866
6.9471 -8.5830 2.1866
6.7185 -6.1271 1.8003
6.6370 -4.4289 1.5794
6.7203 -3.1432 1.4683
6.7219 -1.9806 1.3865
6.7232 -0.9173 1.3422
6.7245 0.1032 1.3300
6.7285 1.1294 1.3489
6.7299 2.2096 1.4001
6.7313 3.4039 1.4906
6.7330 4.7978 1.6334
6.7399 6.5363 1.8546
6.6984 8.8151 2.1866
5.2975 9.7234 2.1866
4.0388 11.1362 2.3390
2.3185 11.6177 2.3390
0.5453 11.8346 2.3390
-1.2404 11.7820 2.3390
-2.9977 11.4611 2.3390
-4.6866 10.8792 2.3390
-5.8600 9.3948 2.1866
-7.2050 8.4056 2.1866
-8.3855 7.2254 2.1866
-10.0282 6.2910 2.3390
-10.8577 4.7105 2.3390
-11.4398 3.0236 2.3390
-11.7615 1.2687 2.3390
-11.8155 -0.5143 2.3390
-11.6009 -2.2846 2.3390
-7.5510 -2.7169 1.5879
-10.3920 -5.6279 2.3390
-8.8114 -6.6608 2.1866
-7.7080 -7.9086 2.1866
-6.4300 -8.9763 2.1866
-5.3553 -10.5257 2.3390
-3.7111 -11.2102 2.3390
-1.9830 -11.6401 2.3390
-0.2100 -11.8056 2.3390
1.5678 -11.7030 2.3390
3.3101 -11.3347 2.3390
4.7149 -10.1442 2.2156
6.1064 -9.1987 2.1866
6.7168 -7.4007 1.9790
6.7194 -5.4655 1.7147
6.7193 -3.9541 1.5431
6.7209 -2.6918 1.4327
6.7224 -1.5740 1.3659
6.7237 -0.5327 1.3340
6.6412 0.4783 1.3166
6.7290 1.5248 1.3640
6.7304 2.6397 1.4289
6.7319 3.8967 1.5370
6.7337 5.3971 1.7048
6.7408 7.3204 1.9655
6.1900 9.1800 2.1866
4.7399 10.0077 2.1866
3.4032 11.3469 2.3390
1.6584 11.7303 2.3390
-0.1242 11.8466 2.3390
-1.9041 11.6930 2.3390
-3.6404 11.2731 2.3390
-5.2936 10.5965 2.3390
-6.3812 9.0482 2.1866
-7.6680 7.9846 2.1866
-8.7797 6.7395 2.1866
-10.3668 5.7139 2.3390
-11.1055 4.0891 2.3390
-11.5913 2.3721 2.3390
-11.8133 0.6020 2.3390
-11.7665 -1.1810 2.3390
-11.4522 -2.9362 2.3390
-10.8779 -4.6238 2.3390
-10.0566 -6.2056 2.3390
-8.4203 -7.1476 2.1866
-7.2483 -8.3310 2.1866
-5.9122 -9.3249 2.1866
-4.7517 -10.8111 2.3390
-3.0716 -11.4017 2.3390
-1.3220 -11.7334 2.3390
0.4575 -11.7986 2.3390
2.2267 -11.5959 2.3390
3.9454 -11.1299 2.3390
2.5081 -10.8295 2.3390
4.1084 -10.3299 2.3390
5.2498 -8.9703 2.1866
6.5400 -8.0799 2.1866
6.7185 -6.1270 1.9123
6.6370 -4.4288 1.6778
6.7203 -3.1432 1.5597
6.7218 -1.9805 1.4729
6.7232 -0.9172 1.4258
6.7245 0.1033 1.4129
6.7285 1.1294 1.4330
6.7298 2.2096 1.4874
6.7313 3.4039 1.5835
6.7329 4.7978 1.7353
6.7398 6.5362 1.9703
6.3050 8.2974 2.1866
4.9863 9.1523 2.1866
3.8015 10.4820 2.3390
2.1823 10.9351 2.3390
0.5133 11.1393 2.3390
-1.1675 11.0898 2.3390
-2.8216 10.7878 2.3390
-4.4113 10.2401 2.3390
-5.7598 9.2342 2.2833
-6.7818 7.9119 2.1866
-7.8931 6.8011 2.1866
-8.8243 5.5359 2.1866
-10.2203 4.4340 2.3390
-10.7684 2.8462 2.3390
-11.0714 1.1943 2.3390
-11.1224 -0.4840 2.3390
-10.9205 -2.1505 2.3390
-7.5418 -2.7136 1.6847
-9.1454 -4.9528 2.1866
-8.2949 -6.2704 2.1866
-7.2563 -7.4451 2.1866
-6.0533 -8.4503 2.1866
-5.0415 -9.9090 2.3390
-3.4937 -10.5535 2.3390
-1.8668 -10.9582 2.3390
-0.1977 -11.1140 2.3390
1.4760 -11.0175 2.3390
3.1162 -10.6707 2.3390
4.6858 -10.0816 2.3390
5.7486 -8.6597 2.1866
6.9867 -7.6981 2.1866
6.7192 -3.9540 1.6392
6.7209 -2.6918 1.5219
6.7223 -1.5740 1.4510
6.7237 -0.5326 1.4172
6.7194 -5.4654 1.8215
6.7290 1.5248 1.4490
6.7303 2.6397 1.5179
6.6412 0.4783 1.3987
6.7318 3.8967 1.6328
7.0587 7.6657 2.1867
5.8264 8.6408 2.1866
4.6981 9.9196 2.3026
6.7336 5.3970 1.8112
-0.1169 11.1505 2.3390
-1.7922 11.0060 2.3390
-3.4266 10.6108 2.3390
1.5610 11.0412 2.3390
-4.9826 9.9741 2.3390
3.2033 10.6803 2.3390
-7.2176 7.5157 2.1866
-8.2642 6.3438 2.1866
-9.1223 5.0280 2.1866
-10.4537 3.8491 2.3390
-11.1202 0.5667 2.3390
-11.0763 -1.1117 2.3390
-10.9111 2.2329 2.3390
-10.7806 -2.7639 2.3390
-8.8502 -5.4612 2.1866
-6.0064 8.5168 2.1866
-7.9268 -6.7286 2.1866
-5.7625 -9.0887 2.2638
-6.8236 -7.8428 2.1866
-10.2401 -4.3527 2.3390
-4.4733 -10.1776 2.3390
0.4307 -11.1074 2.3390
2.0962 -10.9166 2.3390
-2.8917 -10.7337 2.3390
3.7143 -10.4778 2.3390
-1.2446 -11.0460 2.3390
2.3687 -10.2274 2.3390
3.8800 -9.7555 2.3390
4.9579 -8.4715 2.1866
6.1763 -7.6305 2.1866
6.7184 -6.1269 2.0249
6.6369 -4.4287 1.7766
6.7202 -3.1431 1.6516
6.7217 -1.9805 1.5596
6.7231 -0.9172 1.5099
6.7244 0.1033 1.4961
6.7284 1.1294 1.5175
6.7298 2.2096 1.5751
6.7312 3.4039 1.6770
6.7329 4.7978 1.8377
7.0632 6.8499 2.1867
5.9535 7.8349 2.1866
4.7245 8.6718 2.1941
3.5896 9.8976 2.3390
2.0607 10.3255 2.3390
0.4847 10.5183 2.3390
-1.1024 10.4715 2.3390
-2.6643 10.1863 2.3390
-4.1654 9.6692 2.3390
-5.5713 8.9320 2.3390
-6.4038 7.4710 2.1866
-7.4532 6.4221 2.1866
-8.3326 5.2274 2.1866
-9.0221 3.9142 2.1866
-10.1686 2.6877 2.3390
-10.4548 1.1278 2.3390
-10.5032 -0.4570 2.3390
-10.3127 -2.0308 2.3390
-7.5326 -2.7103 1.7818
-8.6365 -4.6771 2.1866
-7.8335 -5.9215 2.1866
-6.8527 -7.0310 2.1866
-5.7719 -8.0575 2.2077
-4.7612 -9.3580 2.3390
-3.2995 -9.9667 2.3390
-1.7630 -10.3489 2.3390
