ply
format ascii 1.0
element vertex 2130
property float32 x
property float32 y
property float32 z
end_header
-21.3446 -15.1884 0.4669
-21.3500 -20.6897 0.5303
6.6125 -25.1012 0.4639
6.7133 -15.4958 0.3017
6.7043 -10.6919 0.2253
6.7164 -7.7934 0.1836
6.7190 -5.7547 0.1577
6.6351 -4.1323 0.1393
6.7205 -2.8872 0.1302
6.7220 -1.7489 0.1235
6.7233 -0.6969 0.1201
6.7247 0.3227 0.1195
6.6422 1.3408 0.1201
6.7301 2.4599 0.1269
6.7317 3.6921 0.1358
6.7336 5.1498 0.1498
6.7408 6.9984 0.1716
6.7440 9.5389 0.2062
6.7486 13.4796 0.2659
6.7603 20.8933 0.3872
6.7760 41.5410 0.7419
-21.0015 44.2342 0.8637
-21.3181 17.0220 0.4821
-21.3306 12.2859 0.4354
-21.3291 8.3054 0.4053
-21.3328 4.7724 0.3875
-21.3345 1.4713 0.3794
-21.3340 -1.7617 0.3802
-7.3895 -1.7585 0.1351
-21.3372 -8.6430 0.4097
-21.3403 -12.6795 0.4422
-21.3503 -17.5262 0.4925
-21.2585 -23.6496 0.5674
6.6752 -37.7014 0.6843
6.6262 -19.5697 0.3692
6.7014 -12.9440 0.2603
6.6226 -9.1028 0.2010
6.7177 -6.7878 0.1704
6.7200 -4.9966 0.1493
6.7196 -3.5679 0.1355
6.7212 -2.3539 0.1267
6.7226 -1.2625 0.1216
6.7239 -0.2314 0.1194
6.7253 0.7894 0.1201
6.7294 1.8485 0.1236
6.7308 3.0003 0.1304
6.7325 4.3207 0.1415
6.7346 5.9282 0.1585
6.7421 8.0411 0.1853
6.7460 11.0896 0.2290
6.7521 16.1829 0.3092
6.7526 27.1193 0.4927
-24.8998 42.9279 1.4631
-29.4681 36.6762 1.3876
-21.3114 19.5653 0.8537
-21.3258 14.3241 0.7584
-21.3276 10.0465 0.6964
-21.3333 6.3426 0.6578
-21.3313 2.9571 0.6369
-21.3336 -0.2878 0.6314
-21.3372 -3.5470 0.6405
-21.3364 -6.9754 0.6651
-21.3368 -10.7637 0.7085
-21.3448 -15.1884 0.7771
-21.3497 -20.6894 0.8823
6.7132 -15.4955 0.5016
6.6123 -25.1004 0.7712
6.7163 -7.7933 0.3054
6.7189 -5.7547 0.2625
6.6351 -4.1323 0.2318
6.7042 -10.6918 0.3748
6.7205 -2.8872 0.2168
6.7233 -0.6969 0.2001
6.7246 0.3227 0.1992
6.6421 1.3408 0.2003
6.7301 2.4599 0.2117
6.7317 3.6921 0.2267
6.7335 5.1498 0.2502
6.7407 6.9983 0.2866
6.7440 9.5388 0.3445
6.7485 13.4794 0.4444
6.7601 20.8928 0.6472
6.7219 -1.7489 0.2057
6.7757 41.5391 1.2402
-21.0014 44.2342 1.4434
-30.3352 32.8416 1.3189
-21.3186 17.0224 0.8052
-21.3305 12.2859 0.7269
-21.3328 4.7725 0.6463
-21.3346 1.4713 0.6326
-21.3291 8.3055 0.6763
-7.2746 -1.7312 0.2215
-21.3341 -1.7616 0.6337
-21.3376 -8.6432 0.6823
-21.3504 -17.5263 0.8196
-21.3408 -12.6797 0.7361
-21.2585 -23.6495 0.9439
6.6749 -37.6997 1.1376
6.7013 -12.9438 0.4329
6.6261 -19.5692 0.6138
6.6225 -9.1027 0.3342
6.7176 -6.7877 0.2834
6.7212 -2.3539 0.2110
6.7196 -3.5679 0.2256
6.7226 -1.2625 0.2025
6.7252 0.7894 0.2003
6.7199 -4.9965 0.2484
6.7239 -0.2314 0.1991
6.7293 1.8485 0.2063
6.7345 5.9281 0.2647
6.7325 4.3207 0.2362
6.7421 8.0410 0.3095
6.7308 3.0003 0.2177
6.7519 16.1826 0.5168
6.7459 11.0894 0.3827
6.7526 27.1193 0.8236
-23.6950 40.8508 1.9519
-26.3334 32.7749 1.7381
-21.3114 19.5653 1.1964
-21.3257 14.3241 1.0628
-21.3271 10.0464 0.9757
-21.3333 6.3427 0.9215
-21.3314 2.9572 0.8920
-21.3337 -0.2878 0.8842
-21.3371 -3.5470 0.8968
-21.3368 -6.9755 0.9311
-21.3371 -10.7638 0.9917
-21.3449 -15.1885 1.0875
-21.3493 -20.6890 1.2345
-27.7738 -36.5451 1.9067
6.7130 -15.4951 0.7017
6.7041 -10.6916 0.5243
6.6122 -25.0996 1.0787
6.7189 -5.7546 0.3673
6.7162 -7.7932 0.4273
6.6350 -4.1322 0.3244
6.7204 -2.8871 0.3034
6.7232 -0.6969 0.2802
6.7246 0.3227 0.2789
6.6421 1.3408 0.2806
6.7219 -1.7488 0.2880
6.7300 2.4599 0.2966
6.7335 5.1498 0.3506
6.7407 6.9983 0.4018
6.7316 3.6921 0.3177
6.7439 9.5387 0.4829
6.7600 20.8923 0.9073
6.7753 41.5372 1.7388
6.7484 13.4792 0.6230
-21.0702 44.3792 2.0302
-25.1509 37.1998 1.8561
-27.1875 29.4339 1.6567
-21.3192 17.0229 1.1284
-21.3305 12.2860 1.0185
-21.3292 8.3055 0.9475
-21.3327 4.7725 0.9053
-21.3348 1.4713 0.8860
-21.3342 -1.7616 0.8873
-21.3380 -8.6433 0.9551
-21.3413 -12.6800 1.0303
-7.1631 -1.7046 0.3053
-21.3505 -17.5264 1.1469
-21.2585 -23.6495 1.3207
-26.3401 -40.1190 1.9938
6.6259 -19.5687 0.8586
6.7011 -12.9436 0.6056
6.6747 -37.6980 1.5911
6.6224 -9.1026 0.4676
6.7198 -4.9965 0.3476
6.7211 -2.3539 0.2954
6.7175 -6.7877 0.3966
6.7195 -3.5678 0.3157
6.7238 -0.2313 0.2788
6.7251 0.7894 0.2805
6.7225 -1.2624 0.2836
6.7307 3.0003 0.3050
6.7293 1.8485 0.2889
6.7420 8.0410 0.4338
6.7324 4.3206 0.3309
6.7344 5.9281 0.3710
6.7526 27.1193 1.1547
6.7458 11.0893 0.5365
6.7518 16.1823 0.7246
-15.6480 39.8271 2.2757
-20.3207 35.0335 2.1542
-23.3550 29.0679 1.9838
-21.3114 19.5654 1.5395
-21.3257 14.3241 1.3674
-21.3267 10.0462 1.2552
-21.3334 6.3427 1.1854
-21.3316 2.9572 1.1474
-21.3338 -0.2878 1.1372
-21.3369 -3.5469 1.1533
-21.3372 -6.9756 1.1973
-21.3375 -10.7640 1.2751
-21.3490 -20.6887 1.5871
-24.6359 -32.4162 2.1741
-20.6983 -38.0124 2.3116
-14.8220 -40.9375 2.3256
-7.9764 -40.1440 2.1864
-1.9650 -43.7358 2.3388
4.6469 -43.5333 2.3388
-21.3450 -15.1885 1.3982
6.6120 -25.0988 1.3865
6.7040 -10.6914 0.6739
6.7129 -15.4948 0.9019
6.7161 -7.7931 0.5493
6.7188 -5.7545 0.4722
6.6349 -4.1322 0.4171
6.7218 -1.7488 0.3704
6.7232 -0.6969 0.3603
6.7204 -2.8871 0.3902
6.6420 1.3408 0.3610
6.7300 2.4599 0.3816
6.7316 3.6921 0.4087
6.7334 5.1497 0.4511
6.7406 6.9982 0.5170
6.7245 0.3227 0.3588
6.7438 9.5386 0.6214
6.7483 13.4790 0.8017
6.6195 40.5821 2.1864
6.7598 20.8919 1.1677
0.4597 43.9833 2.3388
-12.6619 42.1189 2.3388
-18.1521 38.2329 2.2510
-5.7756 40.7514 2.1886
-22.1701 32.7911 2.1056
-24.2978 26.3054 1.9053
-21.3304 12.2860 1.3104
-21.3197 17.0233 1.4520
-21.3326 4.7725 1.1645
-21.3343 -1.7616 1.1412
-21.3350 1.4714 1.1396
-21.3293 8.3056 1.2189
-21.3384 -8.6434 1.2282
-21.3367 -5.0775 1.1696
-21.3507 -17.5265 1.4745
-21.2585 -23.6494 1.6978
-21.3418 -12.6802 1.3247
-23.0635 -35.1283 2.2441
-18.0796 -39.4503 2.3179
-12.0026 -41.9797 2.3323
-5.5558 -43.4266 2.3388
1.0505 -43.7672 2.3388
6.6744 -37.6964 2.0451
6.6258 -19.5682 1.1035
6.6223 -9.1024 0.6011
6.7010 -12.9433 0.7784
6.7198 -4.9964 0.4469
6.7195 -3.5678 0.4059
6.7225 -1.2624 0.3647
6.7210 -2.3538 0.3798
6.7238 -0.2313 0.3586
6.7251 0.7894 0.3608
6.7307 3.0003 0.3924
6.7292 1.8485 0.3717
6.7174 -6.7876 0.5098
6.7419 8.0409 0.5583
6.7344 5.9280 0.4774
6.7457 11.0891 0.6904
6.7517 16.1820 0.9325
6.7323 4.3206 0.4258
6.7526 27.1193 1.4861
-12.9420 32.9398 2.3024
-16.9688 29.2549 2.2005
-20.4280 25.4250 2.1224
-21.3114 19.5654 1.8830
-21.3256 14.3241 1.6725
-21.3262 10.0460 1.5351
-21.3334 6.3428 1.4497
-21.3317 2.9573 1.4032
-21.3368 -3.5469 1.4101
-21.3339 -0.2878 1.3906
-21.3378 -10.7641 1.5589
-21.3452 -15.1886 1.7093
-21.3487 -20.6883 1.9401
-20.2737 -26.6763 2.1870
-16.9988 -31.2183 2.3206
-12.1594 -33.5836 2.3320
-6.5258 -32.8434 2.1864
-1.6077 -35.7823 2.3388
3.8019 -35.6164 2.3388
6.6118 -25.0980 1.6946
6.7128 -15.4945 1.1024
6.7039 -10.6913 0.8238
6.7160 -7.7930 0.6714
6.7187 -5.7545 0.5772
6.6349 -4.1321 0.5099
6.7203 -2.8871 0.4770
6.7218 -1.7488 0.4529
6.7231 -0.6969 0.4406
6.6420 1.3408 0.4414
6.7244 0.3227 0.4387
6.7315 3.6920 0.4999
6.7333 5.1497 0.5518
-21.3376 -6.9757 1.4639
6.7405 6.9982 0.6324
6.7482 13.4788 0.9807
6.7596 20.8914 1.4284
6.7437 9.5385 0.7601
6.7299 2.4599 0.4667
-5.0454 35.5996 2.3388
-10.3046 34.2777 2.3284
5.4112 33.1740 2.1864
-14.8175 31.2093 2.2477
-18.6231 27.5449 2.1635
0.3758 35.9542 2.3388
-21.7439 23.5406 2.0856
-21.3304 12.2860 1.6027
-21.3293 8.3056 1.4907
-21.3351 1.4714 1.3936
-21.3344 -1.7616 1.3954
-21.3365 -5.0774 1.4300
-21.3202 17.0238 1.7760
-21.3388 -8.6436 1.5016
-21.3325 4.7725 1.4241
-21.3423 -12.6805 1.6195
-21.2585 -23.6494 2.0754
-14.8410 -32.3834 2.3256
-19.4771 -29.6657 2.3166
-21.3508 -17.5265 1.8025
-9.2055 -32.1964 2.1864
0.8595 -35.8080 2.3388
-4.5454 -35.5292 2.3388
5.8380 -32.9726 2.1864
6.6222 -9.1023 0.7347
6.7174 -6.7875 0.6232
6.7009 -12.9431 0.9515
6.7194 -3.5677 0.4963
6.6256 -19.5677 1.3488
6.7224 -1.2624 0.4459
6.7197 -4.9963 0.5463
6.7210 -2.3538 0.4644
6.7237 -0.2313 0.4385
6.7292 1.8485 0.4546
6.7323 4.3206 0.5208
6.7343 5.9280 0.5840
6.7306 3.0003 0.4799
6.7456 11.0890 0.8445
6.7515 16.1817 1.1407
6.7250 0.7894 0.4412
6.7418 8.0408 0.6828
6.7526 27.1193 1.8180
-10.9826 27.9528 2.3110
-14.7759 25.4742 2.2663
-18.9803 23.6232 2.3324
-20.9223 19.2082 2.1864
-21.3256 14.3242 1.9780
-21.3258 10.0459 1.8154
-21.3335 6.3428 1.7144
-21.3319 2.9573 1.6593
-21.3340 -0.2877 1.6443
-21.3367 -3.5468 1.6673
-21.3380 -6.9758 1.7309
-21.3381 -10.7642 1.8432
-21.3453 -15.1886 2.0208
-20.3510 -19.7215 2.1864
-18.3396 -24.1313 2.3388
-10.3161 -28.4924 2.3388
-5.7597 -28.9874 2.2812
-14.4879 -26.6069 2.3381
-1.3600 -30.2691 2.3388
3.2161 -30.1288 2.3388
6.7127 -15.4942 1.3032
6.6116 -25.0973 2.0033
6.7038 -10.6911 0.9738
6.7160 -7.7929 0.7938
6.7187 -5.7544 0.6824
6.6348 -4.1321 0.6029
6.7217 -1.7488 0.5355
6.7231 -0.6969 0.5210
6.7244 0.3227 0.5188
6.7202 -2.8870 0.5640
6.7299 2.4599 0.5519
6.7314 3.6920 0.5912
6.6419 1.3408 0.5220
6.7404 6.9981 0.7479
6.7436 9.5384 0.8990
6.7333 5.1496 0.6526
6.7595 20.8909 1.6895
4.7080 28.8630 2.2501
6.7481 13.4786 1.1599
0.3177 30.3968 2.3388
-4.2656 30.0971 2.3388
-12.6779 26.7029 2.2747
-8.1807 27.2125 2.1864
-16.7421 24.7629 2.3005
-21.3207 17.0243 2.1005
-19.8642 21.5056 2.2535
-21.3303 12.2860 1.8955
-21.3324 4.7725 1.6840
-21.3353 1.4715 1.6479
-21.3345 -1.7615 1.6500
-21.3364 -5.0774 1.6909
-21.3294 8.3057 1.7630
-21.3392 -8.6437 1.7754
-21.3428 -12.6807 1.9148
-21.3510 -17.5266 2.1310
-19.7040 -21.9201 2.2742
-16.6338 -25.3350 2.3388
-12.6234 -27.5445 2.3385
-3.8451 -30.0550 2.3388
0.7270 -30.2909 2.3388
4.9385 -27.8923 2.1864
6.7008 -12.9429 1.1248
6.6255 -19.5672 1.5945
6.6221 -9.1022 0.8686
-7.7871 -27.2356 2.1864
6.7173 -6.7874 0.7368
6.7197 -4.9963 0.6459
6.7224 -1.2624 0.5273
6.7209 -2.3538 0.5491
6.7194 -3.5677 0.5867
6.7250 0.7894 0.5217
6.7291 1.8485 0.5375
6.7306 3.0003 0.5675
6.7322 4.3205 0.6159
6.7342 5.9280 0.6906
6.7417 8.0407 0.8076
6.7455 11.0889 0.9989
6.7237 -0.2313 0.5185
6.8658 27.5742 2.1864
6.7514 16.1814 1.3492
-8.9976 22.9005 2.1864
-13.2044 22.7649 2.3388
-16.4814 20.5131 2.3388
-19.3810 17.7932 2.3388
-20.4139 13.7119 2.1864
-21.3253 10.0457 2.0963
-21.3336 6.3429 1.9796
-21.3321 2.9574 1.9159
-21.3340 -0.2877 1.8985
-21.3365 -3.5468 1.9250
-21.3384 -6.9759 1.9985
-21.3384 -10.7643 2.1280
-20.0045 -14.2346 2.1864
-18.8574 -18.2741 2.3388
-15.8867 -20.9037 2.3388
-12.5544 -23.0560 2.3388
-8.3543 -23.0739 2.1864
-5.1155 -25.7455 2.3388
-1.1781 -26.2216 2.3388
2.7861 -26.1001 2.3388
6.2512 -23.7294 2.1864
6.7125 -15.4939 1.5044
6.7037 -10.6909 1.1242
6.7159 -7.7927 0.9163
6.7186 -5.7543 0.7878
6.6348 -4.1320 0.6960
6.7202 -2.8870 0.6512
6.7217 -1.7487 0.6182
6.7230 -0.6969 0.6015
6.7243 0.3227 0.5990
6.6419 1.3408 0.6027
6.7298 2.4599 0.6372
6.7314 3.6920 0.6827
6.7332 5.1496 0.7536
6.7404 6.9980 0.8637
6.7435 9.5383 1.0382
6.7479 13.4783 1.3395
6.7593 20.8904 1.9511
4.2375 25.9786 2.3388
0.2751 26.3209 2.3388
-3.6936 26.0615 2.3388
-7.0838 23.5638 2.1864
-11.2878 23.7751 2.3388
-14.7394 21.8007 2.3388
-17.8533 19.3286 2.3388
-19.7102 15.7382 2.2423
-21.3077 12.2730 2.1864
-21.3294 8.3058 2.0357
-21.3323 4.7725 1.9445
-21.3354 1.4715 1.9028
-21.3346 -1.7615 1.9050
-21.3363 -5.0773 1.9522
-21.3397 -8.6439 2.0498
-21.1096 -12.5422 2.1864
-19.7048 -16.1753 2.2704
-17.5535 -19.5276 2.3388
-14.4091 -21.9466 2.3388
-10.9369 -23.8646 2.3388
-6.7458 -23.5936 2.1864
-3.3310 -26.0362 2.3388
0.6298 -26.2406 2.3388
4.5763 -25.8467 2.3388
6.6253 -19.5667 1.8406
6.7007 -12.9426 1.2984
6.6220 -9.1020 1.0027
6.7172 -6.7873 0.8505
6.7196 -4.9962 0.7457
6.7193 -3.5677 0.6774
6.7223 -1.2624 0.6087
6.7236 -0.2313 0.5986
6.7249 0.7894 0.6024
6.7290 1.8485 0.6207
6.7209 -2.3538 0.6339
6.7305 3.0003 0.6553
6.7342 5.9279 0.7975
6.7417 8.0406 0.9326
6.7454 11.0887 1.1535
6.7513 16.1811 1.5580
5.9453 23.8772 2.1864
6.7322 4.3205 0.7112
-7.9318 20.1881 2.1864
-11.6405 20.0688 2.3388
-14.5297 18.0839 2.3388
-17.0862 15.6864 2.3388
-19.2516 12.9311 2.3388
-19.7206 9.2897 2.1988
-20.7740 6.1765 2.1864
-21.3322 2.9574 2.1731
-21.3341 -0.2877 2.1533
-21.3364 -3.5467 2.1833
-20.5846 -6.7295 2.1864
-19.7124 -9.9441 2.2294
-18.8690 -13.4267 2.3388
-16.6283 -16.1139 2.3388
-14.0090 -18.4330 2.3388
-11.0707 -20.3312 2.3388
-7.3670 -20.3472 2.1864
-4.5110 -22.7032 2.3388
-1.0389 -23.1232 2.3388
2.4568 -23.0160 2.3388
6.7124 -15.4935 1.7060
6.7036 -10.6907 1.2748
6.7158 -7.7926 1.0391
5.5125 -20.9253 2.1864
6.7185 -5.7543 0.8934
6.7201 -2.8870 0.7385
6.6347 -4.1320 0.7893
6.7216 -1.7487 0.7011
6.7243 0.3227 0.6793
6.6418 1.3408 0.6836
6.7230 -0.6968 0.6822
6.7298 2.4599 0.7228
6.7331 5.1496 0.8548
6.7403 6.9980 0.9796
6.7313 3.6920 0.7743
6.7434 9.5382 1.1776
6.7478 13.4781 1.5194
6.6775 20.6377 2.1864
0.2425 23.2031 2.3388
-3.2561 22.9745 2.3388
3.7355 22.9014 2.3388
-6.2447 20.7728 2.1864
-12.9938 19.2189 2.3388
-9.9509 20.9592 2.3388
-15.7392 17.0398 2.3388
-18.1243 14.4720 2.3388
-19.7008 11.3474 2.2930
-20.1976 7.8650 2.1864
-21.1482 4.7313 2.1864
-21.3346 -1.7615 2.1606
-21.3356 1.4716 2.1581
-7.7198 -1.8370 0.8011
-19.6968 -11.7028 2.3137
-17.8988 -14.6928 2.3388
-15.4787 -17.2194 2.3388
-12.7062 -19.3528 2.3388
-20.0709 -8.1300 2.1864
-5.9487 -20.8056 2.1864
-9.0160 -19.6730 2.1864
-2.9374 -22.9596 2.3388
4.0355 -22.7925 2.3388
0.5554 -23.1399 2.3388
6.7006 -12.9424 1.4724
6.6220 -9.1019 1.1371
6.9403 -20.4970 2.1865
6.7171 -6.7872 0.9645
6.7195 -4.9962 0.8457
6.7192 -3.5676 0.7682
6.7208 -2.3537 0.7189
6.7236 -0.2313 0.6790
6.7222 -1.2623 0.6904
6.7290 1.8485 0.7040
6.7249 0.7894 0.6832
6.7304 3.0002 0.7433
6.7321 4.3205 0.8067
6.7416 8.0406 1.0579
6.7341 5.9279 0.9046
6.7511 16.1808 1.7673
5.2411 21.0489 2.1864
6.7453 11.0886 1.3084
-7.0901 18.0456 2.1864
-10.4052 17.9391 2.3388
-12.9879 16.1651 2.3388
-15.2734 14.0221 2.3388
-17.2093 11.5594 2.3388
-18.7517 8.8333 2.3388
-19.6959 5.8560 2.3189
-19.7094 2.7324 2.2459
-19.7132 -0.2658 2.2256
-19.7076 -3.2760 2.2557
-19.6858 -6.4356 2.3388
-18.4886 -9.3267 2.3388
-16.8699 -12.0040 2.3388
-14.8668 -14.4069 2.3388
-12.5251 -16.4805 2.3388
-9.8982 -18.1778 2.3388
-6.5868 -18.1922 2.1864
-4.0333 -20.2988 2.3388
-0.9289 -20.6744 2.3388
2.1967 -20.5785 2.3388
4.9287 -18.7092 2.1864
6.7123 -15.4932 1.9080
6.7035 -10.6906 1.4258
6.7157 -7.7925 1.1623
6.7185 -5.7542 0.9993
6.6346 -4.1319 0.8828
6.7216 -1.7487 0.7842
6.7201 -2.8869 0.8260
6.7242 0.3227 0.7599
6.6418 1.3408 0.7647
6.7297 2.4599 0.8085
6.7313 3.6920 0.8662
6.7229 -0.6968 0.7631
6.7402 6.9979 1.0959
6.7331 5.1495 0.9562
6.7433 9.5380 1.3174
6.7477 13.4779 1.6998
3.3391 20.4708 2.3388
5.9688 18.4475 2.1864
-2.9105 20.5361 2.3388
-5.7639 19.1734 2.2577
0.2168 20.7405 2.3388
-11.6150 17.1795 2.3388
-8.3153 17.5142 2.1864
-14.0692 15.2319 2.3388
-16.2015 12.9367 2.3388
-17.9631 10.3466 2.3388
-19.3139 7.5209 2.3388
-19.7123 1.3595 2.2304
-19.7034 4.4081 2.2787
-7.6876 -1.8294 0.8923
-19.1946 -7.7748 2.3388
-19.7118 -1.6275 2.2330
-17.8014 -10.5766 2.3388
-13.8390 -15.3953 2.3388
-11.3603 -17.3029 2.3388
-16.0025 -13.1361 2.3388
-8.0611 -17.5894 2.1864
-2.6263 -20.5281 2.3388
-5.6894 -19.8988 2.3388
3.6082 -20.3787 2.3388
0.4966 -20.6893 2.3388
6.7005 -12.9422 1.6468
6.2051 -18.3259 2.1864
6.6219 -9.1018 1.2718
6.7171 -6.7871 1.0788
6.7195 -4.9961 0.9459
6.7192 -3.5676 0.8592
6.7208 -2.3537 0.8042
6.7235 -0.2313 0.7595
6.7222 -1.2623 0.7723
6.7248 0.7894 0.7642
6.7304 3.0002 0.8315
6.7289 1.8485 0.7875
6.7320 4.3205 0.9024
6.7415 8.0405 1.1835
6.7452 11.0884 1.4637
6.7340 5.9278 1.0120
4.7170 18.9443 2.2015
6.7510 16.1805 1.9771
-6.4082 16.3101 2.1864
-8.7917 15.1574 2.1864
-11.7390 14.6106 2.3388
-13.8048 12.6739 2.3388
-15.5548 10.4481 2.3388
-16.9491 7.9842 2.3388
-17.9560 5.3387 2.3388
-18.5526 2.5721 2.3388
-18.7255 -0.2525 2.3388
-18.4709 -3.0704 2.3388
-17.7948 -5.8174 2.3388
-16.7129 -8.4308 2.3388
-15.2498 -10.8512 2.3388
-13.4393 -13.0235 2.3388
-11.3225 -14.8982 2.3388
-8.3649 -15.3619 2.1864
-5.9545 -16.4458 2.1864
-0.8397 -18.6898 2.3388
1.9858 -18.6031 2.3388
-3.6461 -18.3503 2.3388
4.6980 -17.8335 2.3054
6.7034 -10.6904 1.5772
6.9534 -16.0499 2.1865
6.7157 -7.7924 1.2857
6.6346 -4.1319 0.9766
6.7184 -5.7541 1.1054
6.7215 -1.7487 0.8676
6.7229 -0.6968 0.8442
6.7242 0.3227 0.8407
6.7200 -2.8869 0.9138
6.7297 2.4599 0.8945
6.7312 3.6919 0.9583
6.7330 5.1495 1.0579
6.7401 6.9978 1.2125
6.7433 9.5379 1.4576
6.7476 13.4777 1.8806
5.3948 16.6732 2.1864
3.0179 18.5019 2.3388
6.6417 1.3408 0.8460
-2.6305 18.5609 2.3388
-5.3968 17.9521 2.3388
0.1959 18.7456 2.3388
-10.4980 15.5274 2.3388
-12.7163 13.7672 2.3388
-14.6438 11.6929 2.3388
-16.2362 9.3519 2.3388
-17.4575 6.7980 2.3388
-18.2797 4.0896 2.3388
-18.6844 1.2887 2.3388
-18.6624 -1.5409 2.3388
-7.6555 -1.8217 0.9830
-17.3510 -7.0282 2.3388
-16.0918 -9.5608 2.3388
-14.4659 -11.8747 2.3388
-12.5102 -13.9171 2.3388
-7.5155 15.8298 2.1864
-10.2696 -15.6416 2.3388
-7.2872 -15.9008 2.1864
-2.3742 -18.5575 2.3388
-5.1432 -17.9885 2.3388
0.4489 -18.7033 2.3388
3.2618 -18.4224 2.3388
5.6095 -16.5666 2.1864
6.7004 -12.9419 1.8217
6.6218 -9.1016 1.4068
6.7194 -4.9960 1.0463
6.7207 -2.3537 0.8896
6.7221 -1.2623 0.8543
6.7191 -3.5675 0.9505
6.7170 -6.7870 1.1934
6.7289 1.8485 0.8712
6.7303 3.0002 0.9199
6.7248 0.7894 0.8455
6.7235 -0.2313 0.8402
6.7320 4.3204 0.9984
6.7340 5.9278 1.1196
6.7451 11.0883 1.6195
6.7414 8.0404 1.3094
4.5294 18.1907 2.3388
6.7476 16.1725 2.1864
-5.8444 14.8752 2.1864
-8.0183 13.8240 2.1864
-10.7064 13.3255 2.3388
-12.5906 11.5592 2.3388
-14.1868 9.5293 2.3388
-15.4587 7.2822 2.3388
-16.3773 4.8693 2.3388
-16.9216 2.3460 2.3388
-17.0795 -0.2303 2.3388
-16.8475 -2.8005 2.3388
-16.2311 -5.3062 2.3388
-15.2444 -7.6900 2.3388
-13.9101 -9.8979 2.3388
-12.2587 -11.8794 2.3388
-10.3280 -13.5895 2.3388
-7.6302 -14.0126 2.1864
-5.7539 -15.8918 2.3162
-3.3259 -16.7387 2.3388
-0.7660 -17.0484 2.3388
1.8114 -16.9693 2.3388
4.3475 -16.5031 2.3388
6.3426 -14.6400 2.1864
6.7033 -10.6902 1.7290
6.7183 -5.7540 1.2119
6.7156 -7.7923 1.4095
6.7200 -2.8869 1.0018
6.6345 -4.1318 1.0707
6.7228 -0.6968 0.9255
6.7241 0.3228 0.9217
6.6417 1.3408 0.9276
6.7296 2.4598 0.9807
6.7311 3.6919 1.0507
6.7329 5.1495 1.1599
6.7401 6.9978 1.3294
6.7432 9.5378 1.5981
6.7475 13.4775 2.0620
6.7215 -1.7486 0.9512
4.9201 15.2064 2.1864
0.1787 17.0964 2.3388
2.7524 16.8741 2.3388
-4.9220 16.3728 2.3388
-6.8544 14.4372 2.1864
-2.3991 16.9279 2.3388
-8.9507 13.2388 2.1864
-13.3558 10.6645 2.3388
-14.8084 8.5295 2.3388
-11.5978 12.5563 2.3388
-15.9224 6.2003 2.3388
-17.0419 1.1754 2.3388
-17.0221 -1.4054 2.3388
-7.6237 -1.8141 1.0732
-15.8263 -6.4106 2.3388
-14.6780 -8.7208 2.3388
-16.6726 3.7301 2.3388
-11.4113 -12.6946 2.3388
-8.7572 -13.3380 2.1864
-6.6472 -14.5043 2.1864
-4.6915 -16.4087 2.3388
-2.1657 -16.9278 2.3388
0.4095 -17.0607 2.3388
-13.1950 -10.8315 2.3388
5.1168 -15.1117 2.1864
2.9753 -16.8045 2.3388
6.6217 -9.1015 1.5423
6.7003 -12.9417 1.9970
6.7169 -6.7870 1.3083
6.7191 -3.5675 1.0421
6.7193 -4.9960 1.1471
6.7221 -1.2623 0.9366
6.7207 -2.3536 0.9753
6.7247 0.7894 0.9270
6.7288 1.8485 0.9552
6.7303 3.0002 1.0086
6.7319 4.3204 1.0947
6.7339 5.9277 1.2276
6.7234 -0.2313 0.9212
6.7450 11.0881 1.7756
6.7413 8.0403 1.4356
6.1540 14.7498 2.1864
4.1309 16.5903 2.3388
-5.7447 14.6216 2.3388
-7.3681 12.7029 2.1864
-9.1971 11.4469 2.1864
-11.5697 10.6219 2.3388
-13.0366 8.7567 2.3388
-14.2055 6.6918 2.3388
-15.0498 4.4747 2.3388
-15.5502 2.1559 2.3388
-15.6954 -0.2116 2.3388
-15.4824 -2.5736 2.3388
-14.9161 -4.8763 2.3388
-14.0094 -7.0671 2.3388
-11.2659 -10.9173 2.3388
-8.8731 -11.6751 2.1864
-12.7834 -9.0961 2.3388
-7.0123 -12.8779 2.1864
-5.3396 -14.7476 2.3388
-3.0566 -15.3833 2.3388
1.6647 -15.5953 2.3388
-0.7040 -15.6680 2.3388
3.9955 -15.1668 2.3388
5.8290 -13.4545 2.1864
6.7155 -7.7922 1.5337
6.7032 -10.6900 1.8814
6.6345 -4.1318 1.1651
6.7183 -5.7540 1.3187
6.7199 -2.8868 1.0901
6.7214 -1.7486 1.0350
6.7228 -0.6968 1.0071
6.7241 0.3228 1.0030
6.6416 1.3408 1.0094
6.7311 3.6919 1.1434
6.7329 5.1494 1.2623
6.7400 6.9977 1.4467
6.7295 2.4598 1.0672
6.5744 13.1318 2.1864
6.7431 9.5377 1.7392
4.7035 14.5369 2.2747
2.5291 15.5055 2.3388
0.1642 15.7097 2.3388
-2.2045 15.5550 2.3388
-4.5228 15.0449 2.3388
-6.2985 13.2664 2.1864
-8.2248 12.1652 2.1864
-12.2729 9.7998 2.3388
-10.6574 11.5381 2.3388
-13.6078 7.8380 2.3388
-15.3212 3.4278 2.3388
-14.6317 5.6977 2.3388
-15.6608 1.0802 2.3388
-15.6427 -1.2915 2.3388
-7.5928 -1.8068 1.1631
-14.5442 -5.8912 2.3388
-13.4890 -8.0143 2.3388
-10.4871 -11.6664 2.3388
-12.1263 -9.9541 2.3388
-8.0480 -12.2579 2.1864
-4.3116 -15.0800 2.3388
-6.1089 -13.3297 2.1864
-1.9903 -15.5571 2.3388
0.3763 -15.6793 2.3388
2.7344 -15.4438 2.3388
6.7416 -13.0216 2.1864
4.7229 -13.9484 2.1959
6.7169 -6.7869 1.4236
6.7193 -4.9959 1.2482
6.7190 -3.5674 1.1339
6.6216 -9.1014 1.6782
6.7206 -2.3536 1.0613
6.7234 -0.2312 1.0024
6.7247 0.7894 1.0087
6.7288 1.8485 1.0395
6.7302 3.0002 1.0975
6.7319 4.3204 1.1913
6.7338 5.9277 1.3359
6.7413 8.0402 1.5623
6.7220 -1.2623 1.0192
5.6549 13.5536 2.1864
6.7449 11.0880 1.9323
3.7958 15.2448 2.3388
-5.3124 13.5213 2.3388
-6.8135 11.7469 2.1864
-8.5050 10.5856 2.1864
-10.6991 9.8227 2.3388
-12.0557 8.0978 2.3388
-13.1368 6.1884 2.3388
-13.9176 4.1381 2.3388
-14.3805 1.9937 2.3388
-14.5150 -0.1956 2.3388
-14.3181 -2.3800 2.3388
-13.7945 -4.5096 2.3388
-12.9562 -6.5357 2.3388
-11.8224 -8.4123 2.3388
-10.4190 -10.0966 2.3388
-8.2062 -10.7976 2.1864
-6.4852 -11.9100 2.1864
-4.9383 -13.6392 2.3388
-2.8269 -14.2272 2.3388
-0.6511 -14.4905 2.3388
1.5396 -14.4232 2.3388
3.6952 -14.0269 2.3388
5.3909 -12.4433 2.1864
6.7031 -10.6899 2.0343
6.7154 -7.7921 1.6583
6.7182 -5.7539 1.4259
6.7199 -2.8868 1.1787
6.6344 -4.1317 1.2598
6.7214 -1.7486 1.1192
6.7240 0.3228 1.0845
6.7227 -0.6968 1.0890
6.7295 2.4598 1.1541
6.6416 1.3408 1.0915
6.7310 3.6919 1.2364
6.7399 6.9977 1.5644
6.7328 5.1494 1.3650
6.7430 9.5376 1.8807
4.4722 13.8221 2.3388
2.3388 14.3385 2.3388
0.1518 14.5273 2.3388
-2.0386 14.3842 2.3388
6.0796 12.1435 2.1864
-5.8244 12.2680 2.1864
-7.6058 11.2497 2.1864
-9.2132 9.9746 2.1864
-11.3494 9.0625 2.3388
-4.1824 13.9125 2.3388
-12.5840 7.2483 2.3388
-13.5309 5.2691 2.3388
-14.4829 0.9990 2.3388
-14.1687 3.1700 2.3388
-14.4663 -1.1943 2.3388
-13.4507 -5.4482 2.3388
-7.5621 -1.7995 1.2526
-12.4749 -7.4118 2.3388
-11.2147 -9.2058 2.3388
-9.0669 -10.0864 2.1864
-7.4432 -11.3366 2.1864
-3.9876 -13.9466 2.3388
-1.8407 -14.3879 2.3388
0.3481 -14.5009 2.3388
2.5289 -14.2831 2.3388
4.6522 -13.7395 2.3388
6.2349 -12.0429 2.1864
-5.7679 -12.5857 2.2322
6.6215 -9.1012 1.8145
6.7168 -6.7868 1.5393
6.7192 -4.9959 1.3496
6.7189 -3.5674 1.2261
6.7206 -2.3536 1.1475
6.7220 -1.2623 1.1021
6.7246 0.7894 1.0908
6.7287 1.8485 1.1240
6.7302 3.0002 1.1868
6.7233 -0.2312 1.0839
6.7318 4.3204 1.2882
7.0579 11.6025 2.1865
6.7338 5.9276 1.4446
5.2293 12.5335 2.1864
6.7412 8.0402 1.6894
3.5101 14.0974 2.3388
-4.9392 12.5714 2.3388
-6.3350 10.9218 2.1864
-7.9076 9.8421 2.1864
-9.9477 9.1328 2.3388
-11.2091 7.5292 2.3388
-12.2143 5.7539 2.3388
-12.9404 3.8476 2.3388
-13.3710 1.8538 2.3388
-13.4961 -0.1819 2.3388
-13.3132 -2.2130 2.3388
-12.8264 -4.1931 2.3388
-12.0470 -6.0771 2.3388
-10.9928 -7.8220 2.3388
-9.0567 -8.7764 2.1864
-7.6305 -10.0400 2.1864
-6.0303 -11.0744 2.1864
-4.5919 -12.6824 2.3388
-2.6286 -13.2291 2.3388
-0.6054 -13.4740 2.3388
1.4316 -13.4114 2.3388
3.4360 -13.0429 2.3388
5.0127 -11.5703 2.1864
6.6991 -10.6835 2.1864
6.7153 -7.7920 1.7834
6.7181 -5.7538 1.5334
6.6343 -4.1317 1.3548
6.7198 -2.8868 1.2676
6.7213 -1.7486 1.2036
6.7227 -0.6968 1.1712
6.7240 0.3228 1.1664
6.6415 1.3408 1.1739
6.7294 2.4598 1.2412
6.7310 3.6919 1.3298
6.7328 5.1493 1.4681
6.7398 6.9976 1.6826
6.7429 9.5375 2.0227
4.1581 12.8512 2.3388
5.6525 11.2905 2.1864
2.1745 13.3312 2.3388
-1.8954 13.3738 2.3388
0.1412 13.5068 2.3388
-3.8886 12.9353 2.3388
-7.0716 10.4595 2.1864
-5.7530 12.1175 2.3228
-8.5661 9.2741 2.1864
-11.7003 6.7394 2.3388
-12.5809 4.8992 2.3388
-13.1740 2.9474 2.3388
-13.4662 0.9289 2.3388
-10.5524 8.4260 2.3388
-13.4509 -1.1105 2.3388
-12.5067 -5.0659 2.3388
-7.5315 -1.7922 1.3417
-11.5995 -6.8917 2.3388
-8.4307 -9.3788 2.1864
-10.4278 -8.5599 2.3388
-5.6196 -12.2621 2.3388
-3.7079 -12.9683 2.3388
-6.9210 -10.5412 2.1864
-1.7116 -13.3786 2.3388
0.3236 -13.4837 2.3388
2.3515 -13.2812 2.3388
5.7975 -11.1980 2.1864
4.3259 -12.7756 2.3388
6.7167 -6.7867 1.6554
6.7191 -4.9958 1.4515
6.6214 -9.1011 1.9514
6.7189 -3.5674 1.3186
6.7219 -1.2622 1.1853
6.7233 -0.2312 1.1657
6.7246 0.7895 1.1731
6.7287 1.8485 1.2089
6.7301 3.0002 1.2764
6.7317 4.3203 1.3855
6.7411 8.0401 1.8170
6.7337 5.9276 1.5537
6.5618 10.7870 2.1864
4.8620 11.6531 2.1864
3.2636 13.1071 2.3388
6.7205 -2.3535 1.2342
-4.6138 11.7431 2.3388
-5.9176 10.2023 2.1864
-7.3867 9.1938 2.1864
-8.6869 7.9753 2.1864
-10.4708 7.0333 2.3388
-11.4099 5.3749 2.3388
-12.0882 3.5942 2.3388
-12.4905 1.7317 2.3388
-12.6075 -0.1699 2.3388
-12.4367 -2.0672 2.3388
-11.9820 -3.9170 2.3388
-11.2540 -5.6770 2.3388
-10.2693 -7.3072 2.3388
-8.4607 -8.1988 2.1864
-7.1283 -9.3793 2.1864
-5.7669 -10.5908 2.2382
-4.2898 -11.8479 2.3388
-2.4556 -12.3586 2.3388
-0.5655 -12.5874 2.3388
1.3374 -12.5289 2.3388
3.2099 -12.1847 2.3388
6.2583 -9.9805 2.1864
6.7153 -7.7919 1.9090
4.7170 -10.8878 2.2024
6.7180 -5.7538 1.6414
6.6343 -4.1316 1.4503
6.7212 -1.7485 1.2884
6.7226 -0.6967 1.2537
6.7239 0.3228 1.2486
6.6414 1.3408 1.2566
6.7294 2.4598 1.3287
6.7309 3.6918 1.4235
6.7327 5.1493 1.5716
6.7197 -2.8867 1.3570
6.7398 6.9975 1.8012
5.2801 10.5467 2.1864
6.8083 9.6301 2.1864
3.8841 12.0045 2.3388
2.0312 12.4529 2.3388
-1.7705 12.4926 2.3388
-5.4111 11.3974 2.3388
0.1319 12.6169 2.3388
-3.6324 12.0830 2.3388
-6.6057 9.7705 2.1864
-9.2150 7.3582 2.1864
-8.0018 8.6632 2.1864
-11.7523 4.5765 2.3388
-12.3064 2.7534 2.3388
-10.9297 6.2955 2.3388
-7.5011 -1.7849 1.4305
-12.5795 0.8677 2.3388
-11.6834 -4.7324 2.3388
-10.8360 -6.4380 2.3388
-7.8759 -8.7615 2.1864
-9.1068 -7.4755 2.1864
-12.5653 -1.0373 2.3388
-5.2498 -11.4551 2.3388
-6.4655 -9.8475 2.1864
2.1968 -12.4073 2.3388
-3.4639 -12.1149 2.3388
0.3023 -12.5965 2.3388
6.9308 -9.5263 2.1865
6.7166 -6.7866 1.7720
-1.5990 -12.4983 2.3388
6.7191 -4.9957 1.5537
6.7204 -2.3535 1.3211
6.7188 -3.5673 1.4115
6.7219 -1.2622 1.2688
5.4160 -10.4611 2.1864
6.7232 -0.2312 1.2479
6.7286 1.8485 1.2941
6.7245 0.7895 1.2558
6.7317 4.3203 1.4831
6.7336 5.9275 1.6633
6.7301 3.0001 1.3664
6.1295 10.0764 2.1864
6.7410 8.0400 1.9451
3.0485 12.2435 2.3388
4.0412 -11.9349 2.3388
4.7053 11.2775 2.2652
-4.3274 11.0142 2.3388
-5.7618 9.9338 2.2698
-6.9282 8.6232 2.1864
-8.1478 7.4804 2.1864
-9.1811 6.1669 2.1864
-10.7019 5.0414 2.3388
-11.3382 3.3712 2.3388
-11.7156 1.6243 2.3388
-11.8254 -0.1593 2.3388
-11.6653 -1.9390 2.3388
-11.2389 -3.6741 2.3388
-10.5561 -5.3249 2.3388
-9.0048 -6.4074 2.1864
-7.9361 -7.6904 2.1864
-6.6863 -8.7978 2.1864
-5.6525 -10.3807 2.3388
-4.0238 -11.1134 2.3388
-2.3034 -11.5925 2.3388
-0.5305 -11.8070 2.3388
1.2545 -11.7522 2.3388
4.6924 -10.8308 2.3357
3.0109 -11.4293 2.3388
5.8703 -9.3617 2.1864
6.7152 -7.7918 2.0352
6.6342 -4.1316 1.5461
6.7197 -2.8867 1.4467
6.7212 -1.7485 1.3736
6.7226 -0.6967 1.3366
6.7239 0.3228 1.3312
6.6414 1.3408 1.3397
6.7293 2.4598 1.4166
6.7180 -5.7537 1.7499
6.7326 5.1493 1.6755
6.7308 3.6918 1.5177
6.3859 9.0326 2.1864
4.9524 9.8921 2.1864
3.6430 11.2594 2.3388
1.9051 11.6800 2.3388
0.1237 11.8338 2.3388
-1.6606 11.7172 2.3388
-3.4069 11.3330 2.3388
-5.0753 10.6900 2.3388
-6.1957 9.1641 2.1864
6.7397 6.9975 1.9204
-7.5052 8.1255 2.1864
-10.2515 5.9049 2.3388
-11.0231 4.2926 2.3388
-11.5429 2.5825 2.3388
-11.7991 0.8139 2.3388
-8.6431 6.9015 2.1864
-11.7859 -0.9730 2.3388
-10.9589 -4.4389 2.3388
-7.4707 -1.7777 1.5189
-10.1641 -6.0388 2.3388
-7.3876 -8.2183 2.1864
-6.0647 -9.2370 2.1864
-4.9244 -10.7450 2.3388
-3.2491 -11.3639 2.3388
-1.4999 -11.7234 2.3388
0.2836 -11.8155 2.3388
2.0606 -11.6381 2.3388
3.7907 -11.1950 2.3388
5.0802 -9.8125 2.1864
6.5010 -8.9356 2.1864
6.7190 -4.9957 1.6564
6.7166 -6.7865 1.8891
6.7204 -2.3535 1.4085
6.7188 -3.5673 1.5048
-8.5421 -7.0119 2.1864
6.7218 -1.2622 1.3527
6.7286 1.8485 1.3797
6.7300 3.0001 1.4568
6.7232 -0.2312 1.3304
6.7316 4.3203 1.5812
6.7336 5.9275 1.7733
7.1074 8.4770 2.1866
6.7245 0.7895 1.3388
4.5567 10.9214 2.3388
2.8593 11.4836 2.3388
5.7491 9.4510 2.1864
-4.0734 10.3677 2.3388
-5.5887 9.6353 2.3388
-6.5216 8.1171 2.1864
-7.6696 7.0414 2.1864
-8.6423 5.8051 2.1864
-10.0739 4.7456 2.3388
-10.6730 3.1734 2.3388
-11.0282 1.5290 2.3388
-11.1317 -0.1500 2.3388
-10.9810 -1.8252 2.3388
-10.5797 -3.4585 2.3388
-9.9370 -5.0126 2.3388
-8.4767 -6.0317 2.1864
-7.4707 -7.2394 2.1864
-6.2943 -8.2819 2.1864
-5.3211 -9.7720 2.3388
-3.7879 -10.4617 2.3388
-2.1683 -10.9127 2.3388
-0.4994 -11.1148 2.3388
1.1810 -11.0632 2.3388
2.8344 -10.7591 2.3388
4.4232 -10.2096 2.3388
5.5261 -8.8127 2.1864
6.7912 -7.8800 2.1864
6.7179 -5.7536 1.8589
6.6342 -4.1315 1.6424
6.7196 -2.8867 1.5368
6.7211 -1.7485 1.4592
6.7225 -0.6967 1.4199
6.7238 0.3228 1.4141
6.6413 1.3408 1.4232
6.7293 2.4598 1.5049
6.7308 3.6918 1.6123
6.7326 5.1492 1.7800
6.7396 6.9974 2.0401
6.0111 8.5024 2.1864
4.7152 9.4184 2.2115
3.4292 10.5985 2.3388
0.1164 11.1391 2.3388
1.7933 10.9944 2.3388
-3.2069 10.6678 2.3388
-1.5631 11.0294 2.3388
-4.7774 10.0626 2.3388
-5.8321 8.6263 2.1864
-8.1359 6.4965 2.1864
-7.0647 7.6486 2.1864
-9.0211 5.1962 2.1864
-10.3763 4.0407 2.3388
-10.8657 2.4311 2.3388
-11.1069 0.7662 2.3388
-11.0945 -0.9159 2.3388
-7.4404 -1.7705 1.6070
-10.3161 -4.1785 2.3388
-8.9445 -5.3142 2.1864
-6.9544 -7.7363 2.1864
-8.0411 -6.6007 2.1864
-5.7716 -8.7906 2.2104
-3.0586 -10.6975 2.3388
-4.6356 -10.1149 2.3388
0.2670 -11.1228 2.3388
-1.4119 -11.0361 2.3388
3.5684 -10.5386 2.3388
1.9398 -10.9557 2.3388
4.7823 -9.2372 2.1864
6.1198 -8.4116 2.1864
6.7165 -6.7864 2.0068
6.7189 -4.9956 1.7596
6.7203 -2.3535 1.4962
6.7218 -1.2622 1.4370
6.7231 -0.2312 1.4133
6.7244 0.7895 1.4223
6.7285 1.8485 1.4657
6.7299 3.0001 1.5476
6.7316 4.3202 1.6798
6.7335 5.9274 1.8838
6.7187 -3.5672 1.5986
6.6898 7.9790 2.1864
5.4116 8.8963 2.1864
2.6915 10.8095 2.3388
4.2892 10.2803 2.3388
-3.8465 9.7902 2.3388
-5.2774 9.0987 2.3388
-6.1584 7.6650 2.1864
-7.2424 6.6492 2.1864
-8.1610 5.4818 2.1864
-8.8930 4.1893 2.1864
-10.0786 2.9967 2.3388
-10.4142 1.4439 2.3388
-10.5119 -0.1416 2.3388
-10.3697 -1.7236 2.3388
-9.9908 -3.2660 2.3388
-8.7724 -4.4252 2.1864
-8.0049 -5.6959 2.1864
-7.0549 -6.8365 2.1864
-5.9440 -7.8210 2.1864
-5.0250 -9.2282 2.3388
-3.5771 -9.8796 2.3388
-2.0477 -10.3055 2.3388
-0.4716 -10.4963 2.3388
1.1152 -10.4475 2.3388
2.6767 -10.1604 2.3388
4.1771 -9.6414 2.3388
5.2185 -8.3223 2.1864
6.4132 -7.4414 2.1864
6.7178 -5.7535 1.9685
6.6341 -4.1315 1.7392
6.7196 -2.8866 1.6274
6.7211 -1.7485 1.5452
6.7225 -0.6967 1.5036
6.7238 0.3228 1.4975
6.6413 1.3408 1.5071
6.7292 2.4598 1.5936
6.7307 3.6918 1.7073
6.7325 5.1492 1.8849
6.8206 7.0815 2.1864
5.6763 8.0289 2.1864
4.6931 9.3742 2.3310
3.2382 10.0081 2.3388
1.6934 10.3819 2.3388
0.1099 10.5186 2.3388
-1.4761 10.4150 2.3388
-3.0283 10.0736 2.3388
-4.5112 9.5020 2.3388
-5.7590 8.5182 2.2864
-6.6712 7.2226 2.1864
-7.6827 6.1347 2.1864
-8.5187 4.9068 2.1864
-9.1600 3.5671 2.1864
-10.4885 0.7235 2.3388
-10.2606 2.2957 2.3388
-10.4768 -0.8649 2.3388
-7.4101 -1.7632 1.6948
-9.1071 -3.6887 2.1864
-8.4467 -5.0184 2.1864
-6.5673 -7.3058 2.1864
-7.5936 -6.2333 2.1864
-4.3777 -9.5520 2.3388
-2.8884 -10.1022 2.3388
-1.3334 -10.4219 2.3388
-5.7513 -8.7596 2.3324
0.2521 -10.5038 2.3388
1.8319 -10.3460 2.3388
4.7032 -9.0843 2.2770
3.3698 -9.9522 2.3388
5.7792 -7.9435 2.1864
6.7189 -4.9956 1.8633
6.7186 -3.5672 1.6928
6.7203 -2.3534 1.5844
6.7217 -1.2622 1.5217
6.7231 -0.2312 1.4966
6.7244 0.7895 1.5061
6.9105 -6.9825 2.1864
6.7285 1.8484 1.5521
6.7315 4.3202 1.7789
6.7299 3.0001 1.6388
6.7334 5.9274 1.9949
6.3172 7.5346 2.1864
5.1102 8.4007 2.1864
2.5415 10.2074 2.3388
4.0503 9.7077 2.3388
-3.6425 9.2711 2.3388
-4.9975 8.6161 2.3388
-5.8318 7.2585 2.1864
-6.8584 6.2967 2.1864
-7.7283 5.1912 2.1864
-8.4216 3.9673 2.1864
-8.9224 2.6529 2.1864
-9.2195 1.2783 2.1864
-9.9548 -0.1341 2.3388
-9.1802 -1.5259 2.1864
-8.8448 -2.8914 2.1864
-8.3076 -4.1907 2.1864
-7.5808 -5.3941 2.1864
-6.6811 -6.4743 2.1864
-5.7667 -7.5877 2.2399
-4.7588 -8.7392 2.3388
-3.3876 -9.3561 2.3388
-1.9392 -9.7595 2.3388
-0.4466 -9.9402 2.3388
1.0562 -9.8941 2.3388
2.5349 -9.6221 2.3388
3.9558 -9.1306 2.3388
4.9421 -7.8814 2.1864
6.0734 -7.0471 2.1864
7.0666 -6.0523 2.1865
6.6340 -4.1314 1.8365
6.7195 -2.8866 1.7184
6.7210 -1.7485 1.6317
6.7224 -0.6967 1.5878
6.7237 0.3228 1.5813
6.6412 1.3408 1.5915
6.7292 2.4598 1.6828
6.7307 3.6918 1.8029
6.7324 5.1492 1.9905
6.4590 6.7061 2.1864
5.3753 7.6031 2.1864
3.0664 9.4774 2.3388
1.6036 9.8314 2.3388
0.1041 9.9608 2.3388
-1.3978 9.8627 2.3388
-2.8677 9.5394 2.3388
-4.2720 8.9982 2.3388
-5.5787 8.2515 2.3388
4.4591 8.9069 2.3388
-6.3175 6.8397 2.1864
-7.2754 5.8094 2.1864
-8.0670 4.6467 2.1864
-8.6744 3.3780 2.1864
-9.0836 2.0324 2.1864
-9.9215 -0.8190 2.3388
-7.4020 -1.7613 1.7877
-9.9325 0.6852 2.3388
-7.9991 -4.7525 2.1864
-7.1912 -5.9030 2.1864
-6.2194 -6.9187 2.1864
-4.1457 -9.0459 2.3388
-8.6245 -3.4933 2.1864
-1.2627 -9.8698 2.3388
-2.7354 -9.5671 2.3388
0.2388 -9.9474 2.3388
3.1913 -9.4249 2.3388
1.7348 -9.7979 2.3388
4.5751 -8.8368 2.3388
6.5443 -6.6125 2.1864
5.4730 -7.5226 2.1864
6.7188 -4.9955 1.9675
-5.4616 -8.3184 2.3388
6.7202 -2.3534 1.6730
6.7230 -0.2311 1.5803
6.7217 -1.2621 1.6068
6.7243 0.7895 1.5904
6.7186 -3.5671 1.7875
6.7284 1.8484 1.6390
6.7298 3.0001 1.7306
5.9822 7.1351 2.1864
4.8392 7.9553 2.1864
6.7314 4.3202 1.8784
3.8355 9.1929 2.3388
2.4068 9.6661 2.3388
6.9887 6.1521 2.1865
-3.4581 8.8017 2.3388
-4.7445 8.1800 2.3388
-5.7609 7.1703 2.2750
-6.5112 5.9780 2.1864
-7.3371 4.9284 2.1864
-7.9953 3.7665 2.1864
-8.4709 2.5187 2.1864
-8.7530 1.2136 2.1864
-8.8352 -0.1190 2.1864
-8.7157 -1.4487 2.1864
-8.3973 -2.7451 2.1864
-7.8873 -3.9786 2.1864
-7.1973 -5.1212 2.1864
-6.3431 -6.1468 2.1864
-5.7169 -7.5221 2.3388
-4.5181 -8.2972 2.3388
-3.2163 -8.8829 2.3388
-1.8411 -9.2659 2.3388
-0.4240 -9.4374 2.3388
1.0027 -9.3936 2.3388
2.4067 -9.1354 2.3388
3.7557 -8.6688 2.3388
4.7196 -7.5266 2.1993
5.7662 -6.6907 2.1864
6.7088 -5.7458 2.1864
6.6340 -4.1314 1.9344
6.7195 -2.8865 1.8100
6.7210 -1.7484 1.7186
6.7224 -0.6966 1.6724
6.7237 0.3228 1.6656
6.6412 1.3408 1.6763
6.7291 2.4598 1.7725
6.7306 3.6917 1.8990
7.0212 5.3700 2.1865
6.1321 6.3667 2.1864
5.1031 7.2182 2.1864
4.2334 8.4560 2.3388
2.9112 8.9976 2.3388
1.5224 9.3336 2.3388
0.0988 9.4565 2.3388
-1.3270 9.3634 2.3388
-2.7225 9.0565 2.3388
-4.0557 8.5427 2.3388
-5.2963 7.8339 2.3388
-5.9977 6.4935 2.1864
-6.9071 5.5154 2.1864
-7.6587 4.4115 2.1864
-8.2354 3.2070 2.1864
-8.6239 1.9295 2.1864
-8.8154 0.6081 2.1864
-8.8057 -0.7269 2.1864
-7.3939 -1.7593 1.8809
-8.1881 -3.3165 2.1864
-7.5944 -4.5120 2.1864
-6.8275 -5.6044 2.1864
-5.9048 -6.5687 2.1864
-5.1853 -7.8976 2.3388
-3.9361 -8.5884 2.3388
-2.5971 -9.0831 2.3388
-1.1989 -9.3706 2.3388
0.2267 -9.4442 2.3388
1.6471 -9.3024 2.3388
3.0299 -8.9482 2.3388
4.3437 -8.3898 2.3388
5.1962 -7.1421 2.1864
6.2133 -6.2780 2.1864
6.7188 -4.9954 2.0723
6.7185 -3.5671 1.8827
6.7202 -2.3534 1.7622
6.7216 -1.2621 1.6924
6.7230 -0.2311 1.6645
6.7243 0.7895 1.6752
6.7283 1.8484 1.7263
6.7298 3.0001 1.8228
6.7314 4.3202 1.9786
6.6348 5.8406 2.1864
5.6794 6.7739 2.1864
4.7097 7.7424 2.2414
3.6413 8.7275 2.3388
2.2849 9.1767 2.3388
-3.2905 8.3752 2.3388
-4.5146 7.7836 2.3388
-5.6355 7.0143 2.3388
-6.1958 5.6883 2.1864
-6.9816 4.6897 2.1864
-7.6080 3.5840 2.1864
-8.0606 2.3967 2.1864
-8.3290 1.1548 2.1864
-8.4073 -0.1132 2.1864
-8.2936 -1.3785 2.1864
-7.9906 -2.6121 2.1864
-7.5053 -3.7860 2.1864
-6.8488 -4.8732 2.1864
-6.0360 -5.8492 2.1864
-5.4401 -7.1579 2.3388
-4.2993 -7.8955 2.3388
-3.0606 -8.4529 2.3388
-1.7520 -8.8173 2.3388
-0.4035 -8.9806 2.3388
0.9542 -8.9389 2.3388
2.2901 -8.6932 2.3388
3.5739 -8.2491 2.3388
4.6988 -7.4934 2.3010
5.4870 -6.3667 2.1864
6.3840 -5.4676 2.1864
6.6339 -4.1313 2.0328
6.7194 -2.8865 1.9021
6.7223 -0.6966 1.7575
6.7236 0.3228 1.7504
6.7209 -1.7484 1.8061
6.6411 1.3408 1.7616
6.7305 3.6917 1.9957
6.7290 2.4598 1.8627
6.6807 5.1097 2.1864
5.8350 6.0582 2.1864
4.0283 8.0463 2.3388
4.8559 6.8686 2.1864
2.7701 8.5616 2.3388
0.0940 8.9983 2.3388
-2.5906 8.6176 2.3388
-3.8592 8.1287 2.3388
-5.0397 7.4542 2.3388
-5.7716 6.2487 2.2111
-6.5725 5.2482 2.1864
-7.2877 4.1978 2.1864
-7.8364 3.0517 2.1864
1.4486 8.8814 2.3388
-8.2061 1.8361 2.1864
-8.3792 -0.6917 2.1864
-7.3857 -1.7574 1.9744
-7.7916 -3.1559 2.1864
-7.2267 -4.2935 2.1864
-6.4969 -5.3330 2.1864
-5.7661 -6.4144 2.2437
-4.9343 -7.5153 2.3388
-3.7455 -8.1726 2.3388
-2.4713 -8.6434 2.3388
0.2157 -8.9870 2.3388
-1.1408 -8.9170 2.3388
1.5673 -8.8520 2.3388
4.1334 -7.9836 2.3388
2.8832 -8.5150 2.3388
-8.3885 0.5787 2.1864
4.9446 -6.7963 2.1864
6.7185 -3.5671 1.9785
6.7201 -2.3533 1.8518
5.9125 -5.9740 2.1864
6.7216 -1.2621 1.7786
6.7242 0.7895 1.7604
6.7229 -0.2311 1.7493
6.7283 1.8484 1.8142
6.7297 3.0000 1.9156
6.3133 5.5576 2.1864
5.4042 6.4457 2.1864
6.7454 -5.0153 2.1864
3.4649 8.3046 2.3388
7.0785 4.5430 2.1866
4.6763 7.6876 2.3388
-1.2627 8.9097 2.3388
2.1742 8.7321 2.3388
-3.1376 7.9859 2.3388
-4.3048 7.4218 2.3388
-5.3736 6.6882 2.3388
-5.9078 5.4240 2.1864
-6.6571 4.4717 2.1864
-7.2544 3.4175 2.1864
-7.6859 2.2853 2.1864
-7.9419 1.1012 2.1864
-8.0166 -0.1079 2.1864
-7.9083 -1.3144 2.1864
-7.6194 -2.4908 2.1864
-7.1567 -3.6101 2.1864
-6.5306 -4.6468 2.1864
-5.7744 -5.5956 2.1936
-5.1874 -6.8254 2.3388
-4.0996 -7.5287 2.3388
-2.9184 -8.0602 2.3388
-1.6706 -8.4078 2.3388
-0.3848 -8.5634 2.3388
0.9099 -8.5237 2.3388
2.1838 -8.2894 2.3388
3.4079 -7.8659 2.3388
4.5543 -7.2629 2.3388
5.2321 -6.0709 2.1864
6.0874 -5.2136 2.1864
6.8039 -4.2372 2.1864
6.7193 -2.8865 1.9947
6.7209 -1.7484 1.8941
6.7222 -0.6966 1.8431
6.7236 0.3228 1.8356
6.6411 1.3408 1.8474
6.7290 2.4597 1.9535
7.0314 3.8567 2.1865
5.5638 5.7766 2.1864
6.3702 4.8722 2.1864
4.7127 6.6660 2.2254
3.8410 7.6723 2.3388
1.3813 8.4685 2.3388
2.6413 8.1636 2.3388
0.0897 8.5800 2.3388
-1.2040 8.4955 2.3388
-2.4701 8.2170 2.3388
-4.8054 7.1077 2.3388
-5.7547 6.2305 2.3122
-6.2670 5.0043 2.1864
-6.9490 4.0027 2.1864
-3.6798 7.7509 2.3388
-7.8248 1.7507 2.1864
-7.9986 0.5518 2.1864
-7.9899 -0.6595 2.1864
-7.3775 -1.7554 2.0683
-7.4722 2.9099 2.1864
-7.4296 -3.0093 2.1864
-5.7313 -6.3757 2.3388
-6.1951 -5.0853 2.1864
-3.5715 -7.7930 2.3388
-4.7051 -7.1662 2.3388
-6.8909 -4.0941 2.1864
-1.0878 -8.5028 2.3388
-2.3566 -8.2419 2.3388
1.4945 -8.4408 2.3388
0.2057 -8.5696 2.3388
2.7493 -8.1195 2.3388
3.9414 -7.6128 2.3388
5.6378 -5.6965 2.1864
6.4321 -4.7823 2.1864
6.7201 -2.3533 1.9421
4.7269 -6.4968 2.1920
7.0800 -3.7590 2.1865
6.7215 -1.2621 1.8652
6.7228 -0.2311 1.8345
6.7242 0.7895 1.8462
6.7282 1.8484 1.9026
6.7296 3.0000 2.0089
4.4589 7.3302 2.3388
5.1530 6.1461 2.1864
3.3038 7.9186 2.3388
6.7491 4.3316 2.1864
6.0198 5.2993 2.1864
2.0731 8.3261 2.3388
-2.9973 7.6290 2.3388
-4.1124 7.0901 2.3388
-5.1334 6.3893 2.3388
-5.7677 5.2953 2.2344
-6.3596 4.2719 2.1864
-6.9302 3.2648 2.1864
-7.3425 2.1832 2.1864
-7.5871 1.0520 2.1864
-7.6584 -0.1031 2.1864
-7.5549 -1.2557 2.1864
-7.2790 -2.3795 2.1864
-6.8370 -3.4488 2.1864
-6.2389 -4.4392 2.1864
-5.7584 -5.5801 2.2898
-4.9557 -6.5205 2.3388
-3.9165 -7.1925 2.3388
-2.7881 -7.7002 2.3388
-1.5960 -8.0323 2.3388
-0.3676 -8.1810 2.3388
0.8692 -8.1430 2.3388
2.0862 -7.9191 2.3388
3.2557 -7.5146 2.3388
4.3509 -6.9386 2.3388
4.9984 -5.7998 2.1864
5.8155 -4.9807 2.1864
6.4999 -4.0479 2.1864
7.0363 -3.0227 2.1865
6.7208 -1.7484 1.9826
6.7222 -0.6966 1.9293
6.6410 1.3408 1.9338
6.7235 0.3229 1.9215
6.7289 2.4597 2.0448
6.7169 3.6843 2.1864
5.3151 5.5185 2.1864
4.6950 6.6410 2.3208
6.0855 4.6545 2.1864
2.5233 7.7987 2.3388
3.6693 7.3293 2.3388
1.3196 8.0900 2.3388
-2.3597 7.8497 2.3388
-3.5153 7.4044 2.3388
0.0857 8.1965 2.3388
-4.5906 6.7901 2.3388
-1.1502 8.1158 2.3388
-5.9869 4.7806 2.1864
-7.1383 2.7798 2.1864
-5.5609 6.0207 2.3388
-7.4751 1.6725 2.1864
-7.6413 0.5272 2.1864
-7.6329 -0.6301 2.1864
-7.3693 -1.7535 2.1627
-7.0977 -2.8748 2.1864
-5.9184 -4.8581 2.1864
-6.5831 -3.9112 2.1864
-5.4754 -6.0909 2.3388
-6.6384 3.8238 2.1864
-3.4120 -7.4449 2.3388
-2.2513 -7.8738 2.3388
-1.0392 -8.1230 2.3388
1.4278 -8.0639 2.3388
0.1965 -8.1869 2.3388
3.7653 -7.2727 2.3388
2.6265 -7.7568 2.3388
5.3860 -5.4420 2.1864
6.7634 -3.5909 2.1864
6.1448 -4.5687 2.1864
6.7214 -1.2620 1.9524
6.7228 -0.2311 1.9203
6.7241 0.7895 1.9326
6.7282 1.8484 1.9916
4.7022 -6.4630 2.2825
6.7200 -2.3533 2.0328
6.4475 4.1380 2.1864
6.9971 3.1193 2.1865
3.1561 7.5646 2.3388
4.9227 5.8714 2.1864
5.7508 5.0625 2.1864
4.2596 7.0026 2.3388
-4.4949 -6.8461 2.3388
1.9804 7.9540 2.3388
-2.8683 7.3005 2.3388
-3.9353 6.7848 2.3388
-4.9124 6.1142 2.3388
-5.7520 5.2809 2.3286
-6.0858 4.0880 2.1864
-6.6318 3.1242 2.1864
-7.0264 2.0893 2.1864
-7.2605 1.0067 2.1864
-7.3288 -0.0987 2.1864
-7.2298 -1.2016 2.1864
-6.9657 -2.2771 2.1864
-6.5427 -3.3003 2.1864
-5.9704 -4.2482 2.1864
-5.6287 -5.4544 2.3388
-4.7424 -6.2399 2.3388
-3.7480 -6.8829 2.3388
-2.6681 -7.3689 2.3388
-1.5273 -7.6866 2.3388
-0.3518 -7.8289 2.3388
0.8318 -7.7926 2.3388
1.9965 -7.5784 2.3388
3.1156 -7.1912 2.3388
4.1637 -6.6399 2.3388
4.7834 -5.5502 2.1864
5.5653 -4.7664 2.1864
6.2202 -3.8737 2.1864
6.7332 -2.8925 2.1864
6.7207 -1.7483 2.0718
6.7221 -0.6966 2.0161
6.7235 0.3229 2.0079
6.6410 1.3408 2.0208
6.8851 2.5168 2.1864
6.4277 3.5256 2.1864
5.8235 4.4541 2.1864
5.0862 5.2808 2.1864
4.5278 6.4044 2.3388
3.5113 7.0137 2.3388
2.4146 7.4629 2.3388
1.2627 7.7416 2.3388
0.0820 7.8435 2.3388
-1.1007 7.7663 2.3388
-2.2581 7.5117 2.3388
-3.3640 7.0856 2.3388
-4.3929 6.4977 2.3388
-5.3215 5.7614 2.3388
-5.7729 4.6097 2.2031
-6.3526 3.6592 2.1864
-6.8310 2.6602 2.1864
-7.1533 1.6005 2.1864
-7.3123 0.5045 2.1864
-7.3044 -0.6029 2.1864
-7.1297 -1.6965 2.1864
-6.7922 -2.7511 2.1864
-6.2998 -3.7428 2.1864
-5.7689 -4.7354 2.2270
-5.2397 -5.8288 2.3388
-4.3015 -6.5515 2.3388
-3.2652 -7.1246 2.3388
-2.1544 -7.5350 2.3388
-0.9945 -7.7735 2.3388
0.1881 -7.8346 2.3388
1.3664 -7.7169 2.3388
2.5135 -7.4230 2.3388
3.6033 -6.9598 2.3388
4.6110 -6.3377 2.3388
5.1542 -5.2078 2.1864
5.8803 -4.3720 2.1864
6.4723 -3.4364 2.1864
6.9166 -2.4222 2.1865
6.7214 -1.2620 2.0402
6.7227 -0.2311 2.0066
6.7240 0.7895 2.0195
7.0689 1.9420 2.1865
6.6957 2.9849 2.1864
6.1699 3.9599 2.1864
5.5032 4.8445 2.1864
4.7255 5.6362 2.1933
4.0762 6.7010 2.3388
3.0202 7.2389 2.3388
1.8952 7.6115 2.3388
-2.7490 6.9970 2.3388
-3.7717 6.5028 2.3388
-4.7082 5.8601 2.3388
-5.5371 5.0837 2.3388
-5.8329 3.9180 2.1864
-6.3562 2.9944 2.1864
-6.7344 2.0024 2.1864
-6.9588 0.9649 2.1864
-7.0243 -0.0945 2.1864
-6.9294 -1.1517 2.1864
-6.6763 -2.1824 2.1864
-6.2709 -3.1632 2.1864
-5.7724 -4.1073 2.2056
-5.3949 -5.2278 2.3388
-4.5454 -5.9807 2.3388
-3.5923 -6.5971 2.3388
-2.5573 -7.0628 2.3388
-1.4639 -7.3674 2.3388
-0.3371 -7.5038 2.3388
0.7973 -7.4689 2.3388
1.9136 -7.2636 2.3388
2.9862 -6.8926 2.3388
4.7090 -5.4639 2.2457
5.3341 -4.5684 2.1864
5.9618 -3.7128 2.1864
3.9907 -6.3641 2.3388
6.4535 -2.7723 2.1864
6.9875 -0.7241 2.1865
6.7978 -1.7684 2.1864
7.0173 0.3370 2.1865
6.5990 2.4123 2.1864
6.1606 3.3791 2.1864
5.5815 4.2689 2.1864
6.8866 1.3904 2.1864
4.8817 5.0685 2.1895
3.3654 6.7222 2.3388
2.3143 7.1527 2.3388
4.3396 6.1383 2.3388
1.2102 7.4198 2.3388
0.0786 7.5175 2.3388
-2.1643 7.1995 2.3388
-1.0549 7.4435 2.3388
-3.2241 6.7911 2.3388
-4.2103 6.2276 2.3388
-5.7580 4.5978 2.2927
-6.0886 3.5071 2.1864
-6.8561 1.5340 2.1864
-7.0085 0.4835 2.1864
-5.1003 5.5220 2.3388
-6.5471 2.5496 2.1864
-6.5101 -2.6368 2.1864
-6.0381 -3.5873 2.1864
-7.0009 -0.5779 2.1864
-5.0221 -5.5867 2.3388
-5.7538 -4.7230 2.3175
-3.1296 -6.8286 2.3388
-6.8334 -1.6260 2.1864
-2.0650 -7.2220 2.3388
-4.1229 -6.2793 2.3388
0.1802 -7.5092 2.3388
1.3096 -7.3964 2.3388
2.4091 -7.1147 2.3388
4.4194 -6.0744 2.3388
-0.9532 -7.4506 2.3388
5.6361 -4.1904 2.1864
6.2034 -3.2936 2.1864
4.9401 -4.9915 2.1864
6.9038 -1.2963 2.1864
7.0210 -0.2413 2.1865
6.6292 -2.3215 2.1864
6.9776 0.8193 2.1865
6.7748 1.8613 2.1864
6.4174 2.8609 2.1864
5.9135 3.7953 2.1864
2.8947 6.9380 2.3388
3.9068 6.4225 2.3388
5.2745 4.6431 2.1864
4.7030 5.6094 2.2775
3.4537 -6.6707 2.3388
1.8164 7.2951 2.3388
-2.6385 6.7158 2.3388
-3.6201 6.2415 2.3388
-4.5190 5.6246 2.3388
-5.3146 4.8793 2.3388
-5.7648 3.8724 2.2514
-6.1008 2.8741 2.1864
-6.4638 1.9220 2.1864
-6.6792 0.9261 2.1864
-6.7421 -0.0907 2.1864
-6.6510 -1.1054 2.1864
-6.4081 -2.0947 2.1864
-6.0190 -3.0362 2.1864
-5.7580 -4.0970 2.2921
-5.1782 -5.0178 2.3388
-4.3629 -5.7405 2.3388
-3.4480 -6.3321 2.3388
-2.4546 -6.7791 2.3388
-1.4051 -7.0715 2.3388
-0.3236 -7.2024 2.3388
0.7653 -7.1690 2.3388
1.8367 -6.9719 2.3388
2.8662 -6.6157 2.3388
3.8304 -6.1085 2.3388
4.6931 -5.4454 2.3318
5.7223 -3.5636 2.1864
6.1943 -2.6609 2.1864
6.5249 -1.6974 2.1864
6.7065 -0.6950 2.1864
6.7351 0.3234 2.1864
6.6099 1.3345 2.1864
5.1198 -4.3849 2.1864
6.3338 2.3153 2.1864
5.3572 4.0974 2.1864
4.7166 4.8971 2.2041
3.2301 6.4521 2.3388
4.1652 5.8916 2.3388
2.2212 6.8652 2.3388
1.1616 7.1216 2.3388
5.9130 3.2434 2.1864
0.0754 7.2154 2.3388
-1.0125 7.1444 2.3388
-3.0946 6.5182 2.3388
-2.0773 6.9102 2.3388
-5.6377 4.5018 2.3388
-4.0411 5.9773 2.3388
-6.2840 2.4472 2.1864
-4.8954 5.3001 2.3388
-6.5806 1.4724 2.1864
-6.5589 -1.5606 2.1864
-5.8440 3.3662 2.1864
-6.7269 0.4641 2.1864
-6.7196 -0.5547 2.1864
-5.5735 -4.5750 2.3388
-5.7956 -3.4432 2.1864
-4.8204 -5.3623 2.3388
2.3123 -6.8290 2.3388
-0.9149 -7.1514 2.3388
0.1730 -7.2076 2.3388
3.3149 -6.4028 2.3388
-3.9573 -6.0271 2.3388
5.9542 -3.1613 2.1864
5.4097 -4.0221 2.1864
6.5026 1.7865 2.1864
6.1596 2.7459 2.1864
6.3629 -2.2282 2.1864
-3.0039 -6.5544 2.3388
5.0625 4.4566 2.1864
4.2419 -5.8304 2.3388
3.7498 6.1644 2.3388
-6.2486 -2.5309 2.1864
4.7417 -4.7910 2.1864
-1.9820 -6.9320 2.3388
5.6759 3.6428 2.1864
6.7387 -0.2316 2.1864
6.6971 0.7863 2.1864
4.6355 5.5289 2.3388
2.7783 6.6592 2.3388
1.2570 -7.0993 2.3388
6.6264 -1.2442 2.1864
1.7434 7.0019 2.3388
-2.5358 6.4544 2.3388
-3.4792 5.9985 2.3388
-4.3431 5.4057 2.3388
-5.1077 4.6895 2.3388
-5.7506 3.8628 2.3368
-5.8634 2.7623 2.1864
-6.2123 1.8472 2.1864
-6.4193 0.8901 2.1864
-6.4797 -0.0872 2.1864
-6.3922 -1.0624 2.1864
-6.1588 -2.0133 2.1864
-5.7849 -2.9180 2.1864
-5.6468 -4.0179 2.3388
-4.9768 -4.8226 2.3388
-4.1932 -5.5172 2.3388
-3.3139 -6.0858 2.3388
-2.3591 -6.5155 2.3388
-1.3505 -6.7964 2.3388
-0.3110 -6.9223 2.3388
0.7355 -6.8901 2.3388
1.7653 -6.7007 2.3388
2.7548 -6.3584 2.3388
3.6814 -5.8709 2.3388
4.5241 -5.2494 2.3388
4.9207 -4.2143 2.1864
5.4997 -3.4250 2.1864
5.9533 -2.5574 2.1864
6.2710 -1.6313 2.1864
6.4456 -0.6679 2.1864
6.4731 0.3108 2.1864
6.3527 1.2826 2.1864
6.0873 2.2252 2.1864
5.6829 3.1172 2.1864
5.1487 3.9379 2.1864
4.7015 4.8814 2.2859
4.0031 5.6623 2.3388
3.1044 6.2009 2.3388
2.1348 6.5980 2.3388
1.1164 6.8444 2.3388
-0.9731 6.8663 2.3388
-1.9964 6.6412 2.3388
0.0725 6.9345 2.3388
-2.9741 6.2645 2.3388
-3.8838 5.7447 2.3388
-5.4183 4.3266 2.3388
-5.7660 3.3213 2.2446
-4.7048 5.0938 2.3388
-6.0395 2.3520 2.1864
-6.3245 1.4151 2.1864
-6.4582 -0.5331 2.1864
-6.4652 0.4461 2.1864
-6.3037 -1.4999 2.1864
-6.0055 -2.4324 2.1864
-5.3567 -4.3970 2.3388
-5.7630 -3.4239 2.2622
-3.8033 -5.7927 2.3388
-2.8871 -6.2994 2.3388
-0.8794 -6.8732 2.3388
-1.9049 -6.6623 2.3388
1.2081 -6.8231 2.3388
2.2224 -6.5633 2.3388
3.1860 -6.1537 2.3388
0.1663 -6.9272 2.3388
4.0769 -5.6036 2.3388
5.1992 -3.8656 2.1864
5.7226 -3.0383 2.1864
6.1154 -2.1415 2.1864
-4.6329 -5.1537 2.3388
6.3686 -1.1958 2.1864
6.4765 -0.2226 2.1864
6.2495 1.7170 2.1864
5.9199 2.6391 2.1864
4.8655 4.2833 2.1864
5.4550 3.5011 2.1864
6.4365 0.7557 2.1864
4.4551 5.3137 2.3388
3.6038 5.9245 2.3388
4.7067 -4.7556 2.2581
2.6702 6.4000 2.3388
1.6755 6.7294 2.3388
-2.4401 6.2108 2.3388
-3.3479 5.7721 2.3388
-4.1791 5.2016 2.3388
-4.9149 4.5125 2.3388
-5.5384 3.7203 2.3388
-5.7676 2.7171 2.2351
-5.9778 1.7775 2.1864
-6.1770 0.8565 2.1864
-6.2352 -0.0839 2.1864
-6.1510 -1.0223 2.1864
-5.9264 -1.9373 2.1864
-5.7628 -2.9069 2.2635
-5.4338 -3.8663 2.3388
-4.7890 -4.6406 2.3388
-4.0350 -5.3090 2.3388
-3.1889 -5.8561 2.3388
-2.2701 -6.2696 2.3388
-1.2995 -6.5400 2.3388
-0.2993 -6.6611 2.3388
0.7078 -6.6302 2.3388
1.6987 -6.4479 2.3388
2.6508 -6.1185 2.3388
3.5425 -5.6494 2.3388
4.3534 -5.0513 2.3388
4.7350 -4.0553 2.1864
5.2922 -3.2957 2.1864
5.7286 -2.4608 2.1864
