ply
format ascii 1.0
element vertex 2074
property float32 x
property float32 y
property float32 z
end_header
-21.3427 -15.6394 -2.6667
-21.3524 -21.2948 -3.0384
-6.8346 -1.2254 -0.7005
-6.6590 -19.3290 -2.0587
12.7286 -14.2280 -1.9232
21.8215 -33.4396 -4.0218
-6.5964 -36.2262 -3.7076
12.7252 -10.4877 -1.6617
23.0601 -13.7491 -2.7061
36.9943 -8.8309 -3.8361
22.1962 -1.8390 -2.2472
22.0444 4.9448 -2.2810
26.9602 -10.9557 -2.9342
20.5915 8.0417 -2.2327
20.6399 16.5426 -2.6732
20.5705 11.8870 -2.4003
22.2465 1.5374 -2.2507
18.1542 38.5465 -4.3088
-8.1968 48.7732 -5.0026
19.8812 29.5765 -3.6033
-7.4069 14.5875 -1.6545
-21.3338 11.4975 -2.4485
-21.3293 7.6085 -2.2873
-21.3137 16.0677 -2.6975
-21.3333 0.8393 -2.1549
-21.3330 -2.4067 -2.1661
-7.2264 -3.1896 -0.7964
-7.4508 -2.0140 -0.7785
-21.3354 -13.5949 -2.5500
-21.3343 4.1247 -2.1940
-21.3277 -25.3132 -3.3346
-7.8674 -18.7735 -2.0499
-8.9155 -35.6312 -3.6984
-21.3513 -18.6881 -2.8593
23.1196 -41.0323 -4.7433
21.8999 -40.9019 -4.1186
10.7666 -14.3632 -1.5938
12.1230 -11.8948 -1.5084
15.3747 -11.0747 -1.6833
23.0890 -11.8034 -2.3045
32.8403 -5.6121 -2.9630
22.2178 -0.3910 -1.9770
22.2683 3.0035 -2.0000
20.4831 6.0173 -1.9009
20.5365 9.6028 -2.0194
20.6775 13.8165 -2.2159
23.7929 29.5182 -3.3803
17.2237 29.6163 -3.0553
-7.5041 31.8239 -2.9168
-8.3422 14.0792 -1.4595
-21.3265 14.0000 -2.2733
-21.3324 9.7640 -2.0899
-21.3325 6.0784 -1.9752
-21.3294 2.7001 -1.9137
-21.3325 -0.5493 -1.8988
-21.3097 19.1692 -2.5550
-21.3385 -3.8257 -1.9282
-21.3331 -11.1260 -2.1384
-21.3428 -15.6394 -2.3508
-21.3521 -21.2944 -2.6784
-7.4324 -2.5380 -0.6983
-6.6039 -19.1690 -1.7996
-6.5814 -36.1438 -3.2605
21.8794 -33.5282 -3.5544
12.6579 -10.4322 -1.4570
23.0601 -13.7491 -2.3856
12.5683 -14.0487 -1.6739
27.1274 -11.0236 -2.6028
22.1962 -1.8389 -1.9812
22.2465 1.5375 -1.9845
32.7087 -7.8078 -2.9902
22.0442 4.9448 -2.0113
20.5705 11.8871 -2.1167
20.5915 8.0418 -1.9688
20.6399 16.5427 -2.3574
19.8811 29.5765 -3.1778
16.3745 34.7677 -3.4276
-8.1518 48.5055 -4.3878
-7.6233 15.0138 -1.5018
-21.3142 16.0681 -2.3789
-21.3333 11.4973 -2.1591
-21.3342 4.1248 -1.9345
-21.3293 7.6086 -2.0169
-21.3331 -2.4066 -1.9098
-21.3335 0.8394 -1.9000
-7.3860 -1.9965 -0.6804
-7.1869 -3.1721 -0.6983
-21.3510 -18.6878 -2.5205
-7.7804 -18.5657 -1.7869
-21.3277 -25.3131 -2.9394
-8.8949 -35.5487 -3.2524
-21.3359 -13.5951 -2.2480
21.4850 -38.1312 -3.8854
20.3760 -38.0557 -3.3177
25.1694 -33.5772 -3.2260
11.9645 -11.7392 -1.2890
23.0179 -16.5803 -2.1822
23.0890 -11.8033 -1.9955
32.3584 -5.5296 -2.5284
22.2178 -0.3909 -1.7123
22.2683 3.0035 -1.7322
20.4831 6.0174 -1.6465
20.5365 9.6029 -1.7493
20.6775 13.8165 -1.9196
23.7928 29.5182 -2.9285
17.2235 29.6160 -2.6471
-7.5345 31.9529 -2.5374
-8.2834 13.9801 -1.2556
-21.3097 19.1693 -2.2135
-21.3320 9.7638 -1.8103
-21.3264 14.0001 -1.9694
-21.3326 6.0785 -1.7109
-21.3326 -0.5492 -1.6445
-21.3295 2.7002 -1.6576
-7.9351 -2.7096 -0.6456
-21.3335 -11.1261 -1.8517
-21.3429 -15.6395 -2.0356
-21.3517 -21.2940 -2.3191
-21.3383 -3.8257 -1.6699
-6.5498 -19.0120 -1.5453
-6.5533 -35.9894 -2.8108
21.8794 -33.5282 -3.0774
12.4976 -10.3000 -1.2456
12.8354 -14.3472 -1.4802
27.1276 -11.0236 -2.2539
23.0601 -13.7490 -2.0657
34.3882 -8.2086 -2.7225
22.1962 -1.8389 -1.7159
22.0439 4.9448 -1.7421
20.4942 8.0039 -1.6973
22.2465 1.5375 -1.7188
20.5705 11.8871 -1.8336
20.6399 16.5428 -2.0422
19.8810 29.5765 -2.7532
16.9361 35.9602 -3.0715
-8.0048 47.6309 -3.7333
-7.5124 14.7953 -1.2822
-21.3329 11.4972 -1.8703
-21.3147 16.0686 -2.0609
-21.3337 0.8394 -1.6456
-21.3341 4.1248 -1.6756
-21.3332 -2.4066 -1.6540
-7.1479 -3.1549 -0.6014
-21.3364 -13.5954 -1.9467
-21.3294 7.6087 -1.7471
-21.3507 -18.6874 -2.1824
-7.3223 -1.9793 -0.5841
-7.6950 -18.3619 -1.5301
-21.3277 -25.3130 -2.5451
-8.9185 -35.6433 -2.8233
20.1163 -35.7019 -3.1497
21.1135 -39.4331 -2.9059
11.4651 -15.2949 -1.2422
11.8103 -11.5879 -1.0756
23.0179 -16.5802 -1.8448
23.0890 -11.8032 -1.6871
15.0120 -2.5653 -0.9919
22.2178 -0.3908 -1.4480
22.2436 3.0003 -1.4634
20.4831 6.0174 -1.3926
20.1456 9.4202 -1.4515
20.4399 13.6578 -1.6052
23.8323 29.5673 -2.4818
17.2234 29.6160 -2.2396
-7.5324 31.9440 -2.1464
-8.2257 13.8827 -1.0549
-21.3097 19.1694 -1.8726
-21.3264 14.0001 -1.6660
-21.3315 9.7637 -1.5313
-21.3297 2.7002 -1.4019
-21.3327 -0.5492 -1.3907
-21.3382 -3.8256 -1.4120
-21.3326 6.0786 -1.4471
-7.8774 -2.6899 -0.5419
-21.3431 -15.6395 -1.7209
-21.3514 -21.2936 -1.9604
-21.3338 -11.1262 -1.5656
-7.1181 -20.6614 -1.4195
-6.6338 -36.4312 -2.4049
19.9919 -43.9947 -3.1391
21.8795 -33.5282 -2.6013
12.3415 -10.1713 -1.0399
11.9871 -13.3989 -1.1685
27.1278 -11.0236 -1.9057
34.6545 -8.2721 -2.3199
22.6104 -13.4808 -1.7124
22.1716 -1.8368 -1.4494
22.0436 4.9449 -1.4734
20.0515 7.8310 -1.4046
22.2465 1.5376 -1.4536
20.6399 16.5429 -1.7276
20.2989 11.7302 -1.5306
16.2644 24.1962 -1.9056
-8.1531 48.5136 -3.2174
16.9355 35.9592 -2.5987
-21.3152 16.0690 -1.7435
-21.3324 11.4970 -1.5821
-21.3295 7.6087 -1.4777
-7.4758 14.7233 -1.0796
-21.3340 4.1248 -1.4172
-21.3333 -2.4065 -1.3987
-21.3338 0.8395 -1.3917
-7.5957 -2.0531 -0.5124
-21.3369 -13.5956 -1.6458
-21.3504 -18.6871 -1.8449
-21.3277 -25.3129 -2.1514
-7.1095 -3.1379 -0.5058
-7.9748 -19.0296 -1.3403
-8.9020 -35.5770 -2.3819
21.1420 -37.5221 -2.7981
21.1135 -39.4329 -2.3747
11.2578 -15.0183 -0.9968
12.4856 -12.2504 -0.9294
23.0179 -16.5801 -1.5080
23.0890 -11.8032 -1.3792
15.0089 -2.5648 -0.8109
22.2178 -0.3908 -1.1841
6.6425 0.8960 -0.3574
20.4831 6.0175 -1.1391
19.7065 9.2149 -1.1615
19.9485 13.3296 -1.2817
18.8359 23.3686 -1.6050
17.2235 29.6163 -1.8328
-7.6015 32.2372 -1.7728
-8.1688 13.7868 -0.8573
-21.3097 19.1695 -1.5322
-21.3263 14.0002 -1.3630
-21.3311 9.7635 -1.2527
-21.3327 6.0787 -1.1837
-21.3298 2.7003 -1.1466
-21.3328 -0.5491 -1.1373
-21.3381 -3.8255 -1.1546
-7.6179 -2.6013 -0.4285
-21.3341 -11.1263 -1.2799
-21.3432 -15.6395 -1.4067
-21.3511 -21.2931 -1.6023
-7.1060 -20.6262 -1.1580
-6.5980 -36.2347 -1.9546
21.8796 -33.5282 -2.1259
12.5340 -14.0102 -0.9986
13.0242 -10.7339 -0.8970
21.9367 -13.0791 -1.3581
27.1280 -11.0236 -1.5580
35.2246 -8.4081 -1.9280
22.1716 -1.8367 -1.1852
6.6447 0.4593 -0.3551
22.0433 4.9449 -1.2051
19.6281 7.6657 -1.1248
19.8330 11.4611 -1.2234
20.6399 16.5429 -1.4135
21.6093 23.5015 -1.7069
16.8467 25.0626 -1.6152
16.9355 35.9593 -2.1267
-8.2683 49.1989 -2.6704
-7.5139 14.7984 -0.8880
-21.3157 16.0695 -1.4266
-21.3320 11.4968 -1.2943
-21.3295 7.6088 -1.2088
-21.3339 4.1249 -1.1592
-21.3340 0.8396 -1.1382
-21.3334 -2.4065 -1.1438
-7.5546 -2.0420 -0.4167
-7.0715 -3.1211 -0.4113
-21.3374 -13.5959 -1.3454
-21.3501 -18.6867 -1.5080
-21.3277 -25.3128 -1.7584
-7.9225 -18.9048 -1.0881
-9.3223 -37.2568 -2.0383
21.1420 -37.5219 -2.2866
21.1136 -39.4329 -1.8443
11.2157 -14.9622 -0.7713
12.3188 -12.0867 -0.7123
6.6354 -4.7795 -0.3377
23.0890 -11.8031 -1.0717
6.7223 -2.2345 -0.2930
6.7237 -1.1489 -0.2824
6.7249 -0.1183 -0.2787
6.6424 0.8960 -0.2779
6.7303 1.9772 -0.2911
19.2866 9.0186 -0.8843
19.4808 13.0171 -0.9738
18.3031 22.7077 -1.2138
17.2252 29.6193 -1.4266
-7.5307 31.9370 -1.3671
-8.1128 13.6923 -0.6627
-21.3097 19.1695 -1.1923
-21.3307 9.7634 -0.9745
-21.3327 6.0787 -0.9207
-21.3263 14.0002 -1.0605
-21.3300 2.7004 -0.8917
-21.3379 -3.8254 -0.8975
-21.3329 -0.5491 -0.8843
-7.5758 -2.5869 -0.3312
-21.3433 -15.6395 -1.0929
-21.3345 -11.1264 -0.9946
-21.3508 -21.2927 -1.2447
-7.0709 -20.5244 -0.8948
-6.5626 -36.0404 -1.5097
10.5149 -16.1129 -0.7935
6.9722 -4.1569 -0.3354
21.7588 -17.9324 -1.1641
6.7217 -2.7314 -0.3000
6.7231 -1.6048 -0.2860
6.7244 -0.5570 -0.2794
6.6446 0.4593 -0.2761
6.7297 1.5096 -0.2861
19.3886 11.2043 -0.9304
20.9603 22.7958 -1.2884
6.7311 2.6288 -0.3000
16.9371 35.9626 -1.6555
20.6399 16.5430 -1.0998
16.8467 25.0626 -1.2571
-8.1464 48.4734 -2.0481
-7.4950 14.7612 -0.6895
-21.3163 16.0700 -1.1100
-21.3296 7.6089 -0.9403
-21.3341 0.8396 -0.8850
-21.3335 -2.4064 -0.8892
-21.3338 4.1249 -0.9015
-7.4632 -2.0173 -0.3199
-21.3361 -9.4170 -0.9643
-21.3315 11.4966 -1.0069
-21.3379 -13.5961 -1.0454
-21.3277 -25.3126 -1.3659
-8.1045 -19.3390 -0.8645
21.1425 -37.5227 -1.7759
-21.3498 -18.6864 -1.1715
21.1168 -39.4389 -1.3146
7.0467 -9.4004 -0.3454
6.7191 -6.5924 -0.2770
6.6353 -4.7794 -0.2408
6.7208 -3.4356 -0.2225
6.7223 -2.2344 -0.2091
6.7236 -1.1489 -0.2015
6.7249 -0.1182 -0.1990
6.6424 0.8960 -0.1985
6.7303 1.9772 -0.2080
6.7317 3.1478 -0.2206
6.7334 4.4993 -0.2406
6.6516 6.0824 -0.2681
17.8001 22.0837 -0.8443
17.2252 29.6194 -1.0207
-7.4063 31.4095 -0.9622
-8.0576 13.5992 -0.4709
-21.3262 14.0002 -0.7582
-21.3302 9.7633 -0.6965
-21.3328 6.0788 -0.6579
-21.3097 19.1696 -0.8527
-21.3301 2.7005 -0.6369
-21.3378 -3.8253 -0.6407
-7.5341 -2.5726 -0.2350
-21.3330 -0.5490 -0.6314
-21.3348 -11.1265 -0.7095
-21.3504 -21.2923 -0.8874
-21.3435 -15.6396 -0.7794
10.6385 -16.3022 -0.5722
6.7179 -7.5091 -0.2964
6.7204 -5.5385 -0.2564
6.7201 -4.0066 -0.2306
6.7217 -2.7313 -0.2140
6.7230 -1.6047 -0.2041
6.7243 -0.5570 -0.1995
6.6446 0.4593 -0.1972
6.7311 2.6288 -0.2144
6.7327 3.8907 -0.2310
6.7418 7.3322 -0.2964
6.7345 5.3978 -0.2566
16.8467 25.0627 -0.8993
16.9389 35.9667 -1.1846
-8.2534 49.1102 -1.4850
6.7297 1.5097 -0.2044
-7.4875 14.7466 -0.4928
-21.3168 16.0704 -0.7938
-21.3311 11.4964 -0.7198
-21.3343 0.8397 -0.6321
-21.3336 -2.4064 -0.6348
-7.4637 -2.0174 -0.2283
-21.3364 -9.4171 -0.6880
-21.3296 7.6090 -0.6720
-21.3337 4.1249 -0.6440
-21.3384 -13.5964 -0.7456
-21.3495 -18.6860 -0.8353
-7.9733 -19.0259 -0.6061
21.1442 -37.5257 -1.2658
-21.3276 -25.3125 -0.9736
6.7033 -12.5194 -0.2492
6.7161 -8.9594 -0.1967
6.7190 -6.5923 -0.1655
6.6353 -4.7794 -0.1440
6.7207 -3.4356 -0.1332
6.7222 -2.2344 -0.1252
6.7236 -1.1489 -0.1208
6.7248 -0.1182 -0.1193
6.6423 0.8960 -0.1192
6.7302 1.9772 -0.1249
6.7317 3.1478 -0.1326
6.7334 4.4993 -0.1448
6.6516 6.0823 -0.1614
6.7431 8.3658 -0.1926
6.6631 11.4575 -0.2379
-7.5011 31.8116 -0.5876
-25.1567 42.4579 -0.8860
-21.3097 19.1697 -0.5133
-21.3262 14.0003 -0.4562
-21.3329 6.0789 -0.3953
-21.3303 2.7006 -0.3824
-21.3298 9.7631 -0.4188
-21.3331 -0.5489 -0.3788
-21.3376 -3.8252 -0.3840
-21.3351 -11.1266 -0.4246
-21.3436 -15.6396 -0.4662
-21.3501 -21.2919 -0.5304
-7.4929 -2.5586 -0.1400
6.6545 -14.6437 -0.2821
6.7179 -7.5090 -0.1771
6.7061 -10.2763 -0.2154
6.7200 -4.0065 -0.1379
6.7230 -1.6047 -0.1223
6.7243 -0.5570 -0.1196
6.6445 0.4593 -0.1183
6.7296 1.5097 -0.1227
6.7310 2.6288 -0.1288
6.7326 3.8907 -0.1389
6.7203 -5.5384 -0.1533
6.7345 5.3978 -0.1544
6.7418 7.3322 -0.1785
6.7452 10.0347 -0.2169
6.7501 14.3325 -0.2845
-8.0686 48.0109 -0.8753
-7.4105 14.5950 -0.2940
-21.3173 16.0709 -0.4777
-21.3306 11.4963 -0.4329
-21.3297 7.6091 -0.4038
6.7216 -2.7313 -0.1281
-21.3344 0.8398 -0.3793
-21.3336 4.1250 -0.3868
-7.3303 -1.9813 -0.1344
-21.3389 -13.5966 -0.4461
-21.3367 -9.4172 -0.4119
-21.3492 -18.6857 -0.4994
-21.3337 -2.4063 -0.3806
-21.3276 -25.3124 -0.5818
-8.1470 -19.4402 -0.3697
6.7041 -11.8980 -0.2396
6.7032 -12.5192 -0.0811
6.7160 -8.9592 -0.0641
6.7189 -6.5922 -0.0541
6.6352 -4.7793 -0.0472
6.7207 -3.4355 -0.0438
6.7222 -2.2343 -0.0414
6.7235 -1.1488 -0.0401
6.7248 -0.1182 -0.0397
6.6423 0.8960 -0.0398
6.7302 1.9772 -0.0419
6.7316 3.1478 -0.0447
6.7333 4.4992 -0.0489
6.6515 6.0823 -0.0547
6.7430 8.3657 -0.0655
6.6630 11.4574 -0.0810
6.7557 17.1587 -0.1130
6.7707 29.7989 -0.1877
-7.4756 31.7035 -0.2001
-25.1566 42.4579 -0.3019
-21.3097 19.1698 -0.1741
-21.3293 9.7630 -0.1411
-21.3261 14.0003 -0.1543
-21.3329 6.0790 -0.1327
-21.3304 2.7006 -0.1279
-21.3375 -3.8252 -0.1275
-21.3332 -0.5489 -0.1262
-21.3354 -11.1267 -0.1399
-7.4522 -2.5446 -0.0460
-21.3437 -15.6396 -0.1530
-21.3498 -21.2915 -0.1736
6.7065 -23.7816 -0.1407
6.7178 -7.5088 -0.0578
6.7060 -10.2761 -0.0702
6.6545 -14.6437 -0.0918
6.7215 -2.7313 -0.0423
6.7200 -4.0065 -0.0453
6.7242 -0.5570 -0.0398
6.6445 0.4593 -0.0395
6.7229 -1.6047 -0.0405
6.7310 2.6288 -0.0433
6.7325 3.8907 -0.0469
6.7344 5.3977 -0.0523
6.7417 7.3321 -0.0606
6.7451 10.0346 -0.0738
6.7202 -5.5384 -0.0502
6.7505 22.7469 -0.1456
6.7296 1.5097 -0.0411
-7.3184 14.4137 -0.0990
6.7500 14.3324 -0.0970
-21.3178 16.0713 -0.1618
-21.3302 11.4961 -0.1461
-21.3298 7.6092 -0.1358
-8.2317 48.9818 -0.3052
-21.3346 0.8398 -0.1266
-21.3337 -2.4063 -0.1266
-7.2016 -1.9465 -0.0437
-21.3335 4.1250 -0.1296
-21.3370 -9.4172 -0.1359
-21.3394 -13.5969 -0.1467
-21.3276 -25.3123 -0.1901
-21.3488 -18.6853 -0.1636
-8.0906 -19.3055 -0.1194
6.6795 -31.3691 -0.1825
6.7120 -17.7531 -0.1082
6.7040 -11.8978 -0.0780
6.7031 -12.5189 0.0869
6.7159 -8.9591 0.0683
6.7189 -6.5921 0.0572
6.6351 -4.7792 0.0495
6.7206 -3.4355 0.0455
6.7221 -2.2343 0.0425
6.7235 -1.1488 0.0406
6.7247 -0.1182 0.0398
6.6422 0.8960 0.0395
6.7301 1.9772 0.0411
6.7316 3.1478 0.0433
6.7332 4.4992 0.0469
6.6514 6.0823 0.0519
6.7429 8.3656 0.0617
6.6629 11.4573 0.0758
6.7556 17.1584 0.1052
6.7704 29.7979 0.1739
-7.4973 31.7957 0.1859
-25.1565 42.4579 0.2820
-21.3097 19.1698 0.1651
-21.3261 14.0004 0.1476
-21.3289 9.7629 0.1364
-21.3330 6.0791 0.1297
-21.3306 2.7007 0.1265
-21.3333 -0.5488 0.1263
-21.3373 -3.8251 0.1290
-7.4120 -2.5309 0.0469
-21.3358 -11.1268 0.1448
-21.3439 -15.6396 0.1601
-21.3495 -21.2911 0.1832
6.7063 -23.7809 0.1517
6.6545 -14.6437 0.0986
6.7059 -10.2759 0.0750
6.7202 -5.5383 0.0528
6.7199 -4.0064 0.0472
6.7215 -2.7312 0.0436
6.7229 -1.6046 0.0413
6.7177 -7.5087 0.0614
6.7242 -0.5569 0.0401
6.6444 0.4593 0.0393
6.7295 1.5097 0.0405
6.7325 3.8906 0.0451
6.7344 5.3977 0.0498
6.7309 2.6288 0.0422
6.7416 7.3321 0.0573
6.7498 14.3321 0.0904
6.7503 22.7463 0.1352
6.7450 10.0345 0.0692
-7.5062 14.7836 0.0946
-8.1967 48.7734 0.2813
-21.3183 16.0718 0.1541
-21.3298 7.6093 0.1321
-21.3334 4.1251 0.1275
-21.3347 0.8399 0.1260
-21.3297 11.4959 0.1406
-21.3338 -2.4062 0.1275
-21.3373 -9.4173 0.1401
-21.3399 -13.5971 0.1528
-7.0774 -1.9129 0.0438
-21.3485 -18.6850 0.1721
-21.3276 -25.3122 0.2016
6.6793 -31.3679 0.1970
6.7118 -17.7527 0.1164
6.7039 -11.8976 0.0836
6.7030 -12.5187 0.2550
6.7158 -8.9589 0.2009
6.7188 -6.5920 0.1686
6.6351 -4.7792 0.1463
6.7206 -3.4354 0.1348
6.7221 -2.2343 0.1263
6.7234 -1.1488 0.1214
6.7247 -0.1182 0.1194
6.6422 0.8960 0.1188
6.7301 1.9772 0.1241
6.7315 3.1478 0.1312
6.7332 4.4992 0.1427
6.6513 6.0822 0.1586
6.7428 8.3656 0.1888
6.6628 11.4571 0.2326
6.7555 17.1581 0.3234
6.7702 29.7970 0.5355
-7.4952 31.7868 0.5723
-25.1564 42.4579 0.8661
-21.3097 19.1699 0.5043
-21.3285 9.7627 0.4140
-21.3261 14.0004 0.4495
-21.3330 6.0791 0.3923
-21.3334 -0.5488 0.3788
-21.3308 2.7008 0.3809
-21.3372 -3.8250 0.3856
-21.3361 -11.1269 0.4296
-7.3721 -2.5172 0.1388
-21.3440 -15.6397 0.4732
-21.3491 -21.2907 0.5400
6.7061 -23.7802 0.4441
6.6545 -14.6437 0.2889
6.7058 -10.2758 0.2202
6.7201 -5.5382 0.1559
6.7198 -4.0064 0.1398
6.7176 -7.5086 0.1806
6.7214 -2.7312 0.1294
6.7241 -0.5569 0.1199
6.7228 -1.6046 0.1231
6.7295 1.5097 0.1221
6.7309 2.6288 0.1277
6.7324 3.8906 0.1372
6.7343 5.3977 0.1520
6.6444 0.4594 0.1181
6.7415 7.3320 0.1751
6.7449 10.0344 0.2123
6.7497 14.3319 0.2779
6.6462 48.2722 0.8538
6.7501 22.7458 0.4159
-34.4948 35.3507 0.8684
-21.3188 16.0722 0.4701
-21.3293 11.4957 0.4274
-21.3333 4.1251 0.3847
-21.3299 7.6093 0.4001
-21.3349 0.8399 0.3787
-21.3339 -2.4062 0.3816
-7.5047 14.7806 0.2908
-21.3368 -5.7669 0.3936
-21.3482 -18.6846 0.5078
-21.3404 -13.5974 0.4522
-21.3377 -9.4174 0.4161
-21.3276 -25.3121 0.5932
6.6791 -31.3668 0.5766
6.7117 -17.7523 0.3410
6.7038 -11.8974 0.2452
6.7029 -12.5185 0.4231
6.7157 -8.9588 0.3334
6.7187 -6.5919 0.2801
6.6350 -4.7791 0.2431
6.7205 -3.4354 0.2242
6.7220 -2.2342 0.2102
6.7234 -1.1488 0.2021
6.7246 -0.1181 0.1991
6.6421 0.8960 0.1981
6.7300 1.9772 0.2071
6.7314 3.1478 0.2192
6.7331 4.4992 0.2386
6.6513 6.0822 0.2653
6.7427 8.3655 0.3160
6.6627 11.4570 0.3896
6.7553 17.1578 0.5417
6.7700 29.7961 0.8973
-7.4867 31.7509 0.9579
-29.6088 36.1282 1.3737
-21.3097 19.1700 0.8436
-21.3260 14.0004 0.7515
-25.1563 42.4579 1.4504
-21.3280 9.7626 0.6917
-21.3309 2.7009 0.6355
-21.3335 -0.5487 0.6315
-21.3371 -3.8249 0.6422
-21.3331 6.0792 0.6549
-21.3359 -7.2852 0.6687
-21.3441 -15.6397 0.7865
-21.3488 -21.2903 0.8970
-21.3364 -11.1270 0.7145
6.7060 -23.7794 0.7366
6.6545 -14.6437 0.4794
6.7058 -10.2756 0.3655
6.7176 -7.5085 0.2999
6.7200 -5.5381 0.2590
6.7198 -4.0063 0.2325
6.7214 -2.7311 0.2153
6.7228 -1.6046 0.2049
6.7241 -0.5569 0.1998
6.6443 0.4594 0.1970
6.7294 1.5097 0.2038
6.7308 2.6288 0.2132
6.7324 3.8906 0.2292
6.7342 5.3976 0.2542
6.7415 7.3319 0.2931
6.7448 10.0343 0.3555
6.7496 14.3317 0.4655
6.6462 48.2722 1.4307
6.7499 22.7452 0.6968
-7.5032 14.7776 0.4870
-30.6535 31.4142 1.2914
-28.8491 40.2837 1.4567
-21.3193 16.0727 0.7862
-21.3288 11.4955 0.7142
-21.3332 4.1251 0.6419
-21.3299 7.6094 0.6683
-21.3340 -2.4061 0.6357
-21.3351 0.8400 0.6315
-21.3380 -9.4175 0.6922
-21.3409 -13.5976 0.7518
-21.3479 -18.6843 0.8437
-21.3276 -25.3120 0.9852
-21.3367 -5.7668 0.6553
6.6788 -31.3655 0.9562
6.7116 -17.7519 0.5657
6.7037 -11.8972 0.4069
6.7028 -12.5182 0.5913
6.7156 -8.9587 0.4661
6.7186 -6.5918 0.3916
6.6350 -4.7791 0.3400
6.7204 -3.4353 0.3136
6.7219 -2.2342 0.2941
6.7233 -1.1487 0.2829
6.7246 -0.1181 0.2788
6.6421 0.8961 0.2775
6.7299 1.9772 0.2902
6.7314 3.1478 0.3072
6.7331 4.4992 0.3346
6.6512 6.0822 0.3721
6.7427 8.3654 0.4433
6.6626 11.4569 0.5466
6.7552 17.1575 0.7602
6.7697 29.7952 1.2593
-7.4783 31.7151 1.3429
-23.9227 40.3759 1.9353
-26.4924 32.3257 1.7243
-21.3097 19.1700 1.1832
-21.3260 14.0005 1.0538
-21.3276 9.7624 0.9696
-21.3332 6.0793 0.9177
-21.3311 2.7010 0.8903
-21.3336 -0.5487 0.8843
-21.3369 -3.8248 0.8991
-21.3363 -7.2853 0.9359
-21.3367 -11.1271 0.9996
-21.3442 -15.6397 1.1000
-21.3485 -21.2899 1.2542
-27.4967 -37.3105 1.9291
6.7058 -23.7787 1.0293
6.6546 -14.6437 0.6699
6.7057 -10.2754 0.5109
6.7175 -7.5084 0.4192
6.7200 -5.5381 0.3622
6.7197 -4.0062 0.3251
6.7213 -2.7311 0.3013
6.7227 -1.6045 0.2868
6.7240 -0.5569 0.2797
6.6443 0.4594 0.2759
6.7294 1.5097 0.2855
6.7308 2.6288 0.2988
6.7323 3.8906 0.3213
6.7342 5.3976 0.3564
6.7414 7.3319 0.4111
6.7447 10.0342 0.4987
6.7495 14.3315 0.6531
6.7497 22.7447 0.9779
6.6462 48.2722 2.0080
-7.4982 14.7678 0.6829
-25.4933 35.5980 1.8060
-27.5195 28.2026 1.6262
-21.3198 16.0732 1.1026
-21.3283 11.4954 1.0012
-21.3300 7.6095 0.9366
-21.3331 4.1252 0.8993
-21.3352 0.8401 0.8845
-21.3341 -2.4061 0.8901
-21.3365 -5.7667 0.9171
-21.3383 -9.4175 0.9686
-21.3414 -13.5979 1.0517
-21.3476 -18.6839 1.1798
-21.3275 -25.3118 1.3774
-25.9117 -42.4043 2.0690
6.6786 -31.3643 1.3361
6.7114 -17.7514 0.7905
6.7036 -11.8969 0.5686
6.7027 -12.5180 0.7597
6.7156 -8.9585 0.5988
6.7186 -6.5917 0.5032
6.6349 -4.7790 0.4369
6.7204 -3.4353 0.4031
6.7219 -2.2342 0.3781
6.7233 -1.1487 0.3638
6.7245 -0.1181 0.3585
6.6420 0.8961 0.3570
6.7299 1.9772 0.3734
6.7313 3.1478 0.3954
6.7330 4.4992 0.4306
6.6511 6.0821 0.4790
6.7426 8.3654 0.5707
6.6625 11.4567 0.7037
6.7550 17.1572 0.9788
6.7695 29.7942 1.6216
3.1598 43.9613 2.3389
-3.5181 43.9345 2.3389
-7.4697 31.6790 1.7273
-16.0061 39.7019 2.2722
-20.6322 34.8224 2.1491
-23.5197 28.6985 1.9709
-21.3097 19.1701 1.5232
-21.3259 14.0005 1.3563
-21.3271 9.7623 1.2478
-21.3332 6.0793 1.1808
-21.3312 2.7010 1.1453
-21.3336 -0.5486 1.1374
-21.3368 -3.8247 1.1561
-21.3367 -7.2853 1.2033
-21.3371 -11.1272 1.2850
-21.3444 -15.6397 1.4138
-21.3481 -21.2894 1.6117
-24.2985 -32.9707 2.1905
-20.0973 -38.2805 2.3131
-14.1653 -41.1159 2.3273
-7.3183 -40.1893 2.1865
-1.2433 -43.6763 2.3389
5.0199 -40.5381 2.1865
6.7056 -23.7780 1.3223
6.6546 -14.6437 0.8607
6.7056 -10.2752 0.6564
6.7174 -7.5083 0.5387
6.7199 -5.5380 0.4654
6.7197 -4.0062 0.4179
6.7213 -2.7310 0.3873
6.7227 -1.6045 0.3688
6.7240 -0.5569 0.3598
6.6442 0.4594 0.3549
6.7293 1.5097 0.3673
6.7307 2.6288 0.3845
6.7322 3.8906 0.4135
6.7341 5.3976 0.4588
6.7413 7.3318 0.5292
6.7446 10.0341 0.6421
6.7494 14.3313 0.8410
6.7496 22.7442 1.2592
5.6196 40.8163 2.1865
-0.6540 44.0706 2.3389
-6.8284 40.6319 2.1865
-13.7849 41.8553 2.3389
-7.4911 14.7539 0.8784
-22.5518 31.4909 2.0570
-23.6759 24.2636 1.8011
-21.3204 16.0736 1.4193
-21.3279 11.4952 1.2886
-21.3301 7.6096 1.2052
-21.3330 4.1252 1.1570
-21.3354 0.8401 1.1377
-21.3364 -5.7667 1.1792
-21.3342 -2.4060 1.1447
-21.3386 -9.4176 1.2452
-21.3473 -18.6836 1.5162
-21.3275 -25.3117 1.7699
-21.3419 -13.5981 1.3518
-22.2296 -36.3785 2.2806
-10.5935 -42.3358 2.3357
-4.0807 -43.5039 2.3389
2.5388 -43.6200 2.3389
6.6783 -31.3631 1.7164
6.7113 -17.7510 1.0156
6.7035 -11.8967 0.7306
-16.7657 -40.0053 2.3211
6.7026 -12.5178 0.9283
6.7155 -8.9584 0.7318
6.7185 -6.5916 0.6150
6.6348 -4.7789 0.5340
6.7203 -3.4352 0.4927
6.7218 -2.2341 0.4622
6.7232 -1.1487 0.4448
6.7245 -0.1181 0.4384
6.6420 0.8961 0.4366
6.7298 1.9773 0.4567
6.7329 4.4991 0.5267
6.7313 3.1478 0.4836
6.6511 6.0821 0.5860
6.7425 8.3653 0.6983
6.6624 11.4566 0.8611
6.7549 17.1569 1.1977
2.5821 35.9233 2.3389
-2.8748 35.9013 2.3389
-7.4611 31.6423 2.1114
6.7693 29.7933 1.9843
-13.2373 32.8344 2.2996
-20.6647 25.2150 2.1187
-21.3097 19.1702 1.8635
-17.2323 29.0844 2.1964
-21.3259 14.0005 1.6593
-21.3267 9.7622 1.5262
-21.3314 2.7011 1.4006
-21.3333 6.0794 1.4442
-21.3337 -0.5486 1.3909
-21.3372 -7.2854 1.4710
-21.3374 -11.1273 1.5708
-21.3445 -15.6397 1.7281
-21.3478 -21.2891 1.9697
-19.8478 -26.9315 2.1865
-16.5084 -31.4444 2.3218
-5.9895 -32.8921 2.1865
-1.0176 -35.7464 2.3389
-11.6230 -33.7367 2.3333
4.3948 -35.4904 2.3389
6.6546 -14.6437 1.0517
-21.3366 -3.8246 1.4135
6.7173 -7.5082 0.6583
6.7198 -5.5379 0.5688
6.7055 -10.2751 0.8020
6.7054 -23.7773 1.6156
6.7212 -2.7310 0.4735
6.7226 -1.6045 0.4508
6.7196 -4.0061 0.5108
6.7239 -0.5568 0.4399
6.7306 2.6288 0.4703
6.6442 0.4594 0.4340
6.7322 3.8906 0.5059
6.7293 1.5097 0.4491
6.7340 5.3976 0.5612
6.7493 14.3311 1.0291
6.7445 10.0340 0.7856
4.7081 34.1958 2.2417
-0.5344 36.0124 2.3389
6.7412 7.3318 0.6474
-5.7652 34.3053 2.2591
-11.1735 33.9261 2.3199
-19.2701 26.9083 2.1507
-22.1945 22.7455 2.0658
-7.4840 14.7400 1.0739
-21.3209 16.0741 1.7363
-21.3274 11.4950 1.5762
-21.3301 7.6097 1.4741
6.7494 22.7436 1.5409
-21.3355 0.8402 1.3913
-21.3329 4.1253 1.4150
-21.3343 -2.4060 1.3997
-21.3362 -5.7665 1.4417
-21.3424 -13.5984 1.6523
-21.3389 -9.4177 1.5222
-21.3470 -18.6832 1.8531
-21.3275 -25.3116 2.1629
-13.7634 -32.8413 2.3283
-3.3398 -35.6053 2.3389
-8.1160 -32.4348 2.1865
-18.4864 -30.2527 2.3175
2.0779 -35.7004 2.3389
6.9630 -32.7002 2.1865
6.7111 -17.7506 1.2409
6.7034 -11.8965 0.8927
6.7025 -12.5175 1.0972
6.7154 -8.9582 0.8649
6.7184 -6.5915 0.7269
6.6348 -4.7788 0.6313
6.7203 -3.4352 0.5825
6.7218 -2.2341 0.5464
6.7232 -1.1487 0.5259
6.7244 -0.1181 0.5184
6.6419 0.8961 0.5163
6.7298 1.9773 0.5401
6.7312 3.1478 0.5720
6.7329 4.4991 0.6230
6.6510 6.0820 0.6932
6.7424 8.3652 0.8261
6.6623 11.4565 1.0187
6.7548 17.1566 1.4170
6.3046 27.7484 2.1865
2.1824 30.3630 2.3389
-6.5307 27.6967 2.1865
-2.4298 30.3444 2.3389
-11.2272 27.8485 2.3075
-19.1504 23.3673 2.3228
-14.8857 25.1238 2.2446
-21.3258 14.0006 1.9626
-21.3263 9.7620 1.8051
-21.3333 6.0795 1.7080
-21.3315 2.7012 1.6563
-21.3338 -0.5485 1.6447
-21.3365 -3.8246 1.6713
-21.3376 -7.2855 1.7392
-21.1366 19.0146 2.1865
-21.3446 -15.6398 2.0428
-21.3377 -11.1274 1.8570
-20.0480 -19.9928 2.1865
-14.0674 -26.7948 2.3384
-17.9626 -24.3734 2.3389
-5.4212 -29.7708 2.3389
-9.2157 -26.7491 2.1865
-0.8610 -30.2464 2.3389
6.7052 -23.7765 1.9094
6.6546 -14.6437 1.2430
6.7054 -10.2749 0.9479
6.7173 -7.5081 0.7782
6.7198 -5.5378 0.6724
6.7212 -2.7310 0.5598
6.7226 -1.6045 0.5330
6.7239 -0.5568 0.5201
3.7186 -30.0296 2.3389
6.6441 0.4594 0.5132
6.7292 1.5097 0.5312
6.7306 2.6288 0.5563
6.7195 -4.0061 0.6038
6.7321 3.8906 0.5983
6.7340 5.3975 0.6639
6.7444 10.0339 0.9294
6.7491 14.3309 1.2175
6.7492 22.7431 1.8230
4.1519 30.1561 2.3389
-0.4517 30.4383 2.3389
-5.0449 30.0198 2.3389
-8.9010 27.0263 2.1865
-7.4769 14.7261 1.2693
6.7412 7.3317 0.7659
-17.3610 24.2425 2.2922
-19.8584 20.3515 2.1865
-21.3270 11.4948 1.8643
-21.3302 7.6097 1.7434
-21.3357 0.8403 1.6452
-21.3214 16.0745 2.0539
-21.3344 -2.4059 1.6550
-21.3328 4.1253 1.6734
-21.3392 -9.4178 1.7996
-21.3086 -18.6496 2.1865
-19.5118 -23.1567 2.3389
-21.3430 -13.5986 1.9533
-11.6985 -27.9141 2.3389
-21.3361 -5.7664 1.7045
-6.8672 -27.4438 2.1865
1.7582 -30.2075 2.3389
-2.8259 -30.1268 2.3389
5.8915 -27.6682 2.1865
6.7110 -17.7502 1.4666
-15.7850 -25.8317 2.3389
6.7033 -11.8963 1.0551
6.7024 -12.5173 1.2663
6.7153 -8.9581 0.9983
6.7184 -6.5914 0.8390
6.6347 -4.7788 0.7287
6.7202 -3.4351 0.6724
6.7217 -2.2340 0.6308
6.7231 -1.1486 0.6072
6.7244 -0.1180 0.5985
6.6419 0.8961 0.5962
6.7297 1.9773 0.6237
6.7312 3.1478 0.6605
6.7328 4.4991 0.7195
6.6509 6.0820 0.8005
6.7423 8.3652 0.9541
6.6622 11.4563 1.1766
6.7546 17.1563 1.6366
5.4583 24.0235 2.1865
-2.1036 26.2707 2.3389
-5.7694 24.4678 2.2311
1.8894 26.2868 2.3389
-13.4295 22.6662 2.3389
-16.6960 20.3726 2.3389
-19.5770 17.6116 2.3389
-20.5723 13.5060 2.1865
-21.3258 9.7619 2.0845
-21.3334 6.0796 1.9723
-9.2107 22.8467 2.1865
-21.3317 2.7013 1.9125
-21.3339 -0.5484 1.8989
-21.3380 -7.2856 2.0079
-21.3364 -3.8245 1.9295
-19.7919 -14.5020 2.1865
-21.3381 -11.1275 2.1438
-15.5624 -21.1164 2.3389
-12.1907 -23.2202 2.3389
-7.9847 -23.1760 2.1865
-4.6971 -25.7945 2.3389
-0.7460 -26.2068 2.3389
-18.5789 -18.5278 2.3389
3.2220 -26.0189 2.3389
6.6546 -14.6437 1.4347
6.6528 -23.5910 2.1865
6.7053 -10.2747 1.0941
6.7172 -7.5080 0.8982
6.7197 -5.5377 0.7761
6.7211 -2.7309 0.6462
6.7225 -1.6044 0.6154
6.7195 -4.0060 0.6970
6.7238 -0.5568 0.6005
6.7292 1.5097 0.6133
6.6441 0.4595 0.5925
6.7305 2.6288 0.6424
6.7339 5.3975 0.7667
6.7411 7.3317 0.8845
6.7321 3.8906 0.6910
6.7490 14.3307 1.4062
6.7443 10.0338 1.0734
7.0087 23.6177 2.1866
3.5945 26.1078 2.3389
-4.3677 25.9898 2.3389
-0.3911 26.3521 2.3389
-7.7062 23.3985 2.1865
-15.3377 21.4173 2.3389
-7.4699 14.7122 1.4647
-18.3927 18.8495 2.3389
-21.3265 11.4946 2.1529
-21.3302 7.6098 2.0132
-21.3327 4.1254 1.9323
-21.3358 0.8403 1.8996
-21.3345 -2.4059 1.9108
-19.7255 14.8714 2.1945
-21.3360 -5.7663 1.9678
-20.6958 -13.1863 2.1865
-19.6926 -17.2352 2.3325
-16.9043 -20.0620 2.3389
-21.3396 -9.4178 2.0776
-5.9499 -23.7781 2.1865
-10.1358 -24.1851 2.3389
-2.4485 -26.1032 2.3389
-13.6760 -22.3804 2.3389
5.1046 -23.9727 2.1865
1.5234 -26.1730 2.3389
6.7108 -17.7497 1.6926
6.7032 -11.8961 1.2178
6.7023 -12.5170 1.4358
6.7152 -8.9579 1.1320
6.7183 -6.5914 0.9514
6.6347 -4.7787 0.8263
6.7202 -3.4351 0.7625
6.7217 -2.2340 0.7154
6.7230 -1.1486 0.6886
6.7243 -0.1180 0.6788
6.6418 0.8961 0.6762
6.7297 1.9773 0.7074
6.7311 3.1478 0.7492
6.7327 4.4991 0.8162
6.6509 6.0820 0.9081
6.7422 8.3651 1.0823
6.6621 11.4562 1.3348
6.7545 17.1560 1.8567
4.8111 21.1751 2.1865
1.6654 23.1698 2.3389
-1.8542 23.1556 2.3389
-5.3309 22.6086 2.3389
-8.1187 20.1380 2.1865
-11.8375 19.9793 2.3389
-14.7172 17.9581 2.3389
-19.3993 12.7359 2.3389
-17.2573 15.5248 2.3389
-19.7319 9.0323 2.1878
-21.3319 2.7013 2.1693
-21.3340 -0.5484 2.1537
-21.3183 -3.8212 2.1865
-20.4893 -6.9958 2.1865
-20.8505 5.9420 2.1865
-19.7090 -10.2779 2.2455
-18.6699 -13.6797 2.3389
-13.7245 -18.6226 2.3389
-16.3844 -16.3391 2.3389
-7.0421 -20.4399 2.1865
-10.7514 -20.4785 2.3389
-0.6580 -23.1133 2.3389
2.8417 -22.9476 2.3389
5.8675 -20.8061 2.1865
-4.1426 -22.7496 2.3389
6.7052 -10.2745 1.2406
6.6547 -14.6437 1.6267
6.7171 -7.5078 1.0184
6.7194 -4.0060 0.7904
6.7196 -5.5377 0.8801
6.7211 -2.7309 0.7328
6.7238 -0.5568 0.6810
6.7225 -1.6044 0.6979
6.7291 1.5097 0.6956
6.7305 2.6288 0.7286
6.7320 3.8905 0.7838
6.7338 5.3975 0.8697
6.7410 7.3316 1.0034
6.7442 10.0337 1.2178
6.7489 14.3305 1.5953
6.1774 20.8166 2.1865
6.6440 0.4595 0.6720
3.1683 23.0121 2.3389
-3.8498 22.9080 2.3389
-6.7925 20.6242 2.1865
-0.3447 23.2273 2.3389
-13.5197 18.8787 2.3389
-7.4628 14.6983 1.6601
-16.2130 16.6158 2.3389
-19.7079 10.6223 2.2568
-18.5325 13.9720 2.3389
-20.4229 7.2861 2.1865
-21.3360 0.8404 2.1546
-21.3346 -2.4058 2.1672
-20.9038 -5.6495 2.1865
-21.2821 4.1156 2.1865
-19.5223 -12.4385 2.3389
-17.4140 -15.2409 2.3389
-19.8038 -8.7403 2.1865
-12.0611 -19.7376 2.3389
-14.9078 -17.6925 2.3389
-5.6133 -22.4328 2.3389
1.3435 -23.0836 2.3389
-8.3567 -19.9399 2.1865
4.7029 -22.0861 2.2841
6.7107 -17.7493 1.9192
-2.1595 -23.0219 2.3389
6.7031 -11.8958 1.3808
6.7022 -12.5168 1.6058
6.7151 -8.9578 1.2659
6.7182 -6.5913 1.0640
6.6346 -4.7786 0.9242
6.7201 -3.4350 0.8528
6.7216 -2.2340 0.8001
6.7230 -1.1486 0.7702
6.7243 -0.1180 0.7593
6.6418 0.8961 0.7564
6.7296 1.9773 0.7914
6.7311 3.1478 0.8381
6.7327 4.4991 0.9131
6.6508 6.0819 1.0160
6.7422 8.3650 1.2109
6.6620 11.4560 1.4934
7.1096 18.0582 2.1866
4.5997 20.2448 2.3389
-1.6572 20.6957 2.3389
1.4885 20.7085 2.3389
-4.7646 20.2070 2.3389
-7.2563 17.9989 2.1865
-13.1544 16.0512 2.3389
-15.4251 13.8767 2.3389
-17.3403 11.3842 2.3389
-18.8560 8.6314 2.3389
-10.5803 17.8574 2.3389
-19.6977 5.6135 2.3107
-19.7102 2.4960 2.2421
-19.7131 -0.5067 2.2261
-19.7065 -3.5322 2.2608
-18.3541 -9.5713 2.3389
-16.6929 -12.2312 2.3389
-19.5952 -6.6905 2.3389
-12.2719 -16.6514 2.3389
-8.9872 -17.1181 2.1865
-6.2969 -18.2770 2.1865
-14.6498 -14.6093 2.3389
-3.7043 -20.3425 2.3389
2.5410 -20.5196 2.3389
-0.5884 -20.6678 2.3389
5.2467 -18.6046 2.1865
6.7051 -10.2744 1.3874
6.6547 -14.6437 1.8192
6.7196 -5.5376 0.9843
6.7194 -4.0059 0.8841
6.7170 -7.5077 1.1390
6.7210 -2.7308 0.8196
6.7237 -0.5567 0.7618
6.6440 0.4595 0.7517
6.7224 -1.6044 0.7806
6.7304 2.6288 0.8151
6.7320 3.8905 0.8768
6.7338 5.3975 0.9730
6.7291 1.5097 0.7782
6.7441 10.0336 1.3624
6.7488 14.3302 1.7848
5.5212 18.6054 2.1865
6.7409 7.3316 1.1226
-0.3081 20.7598 2.3389
-3.4408 20.4745 2.3389
2.8317 20.5675 2.3389
-6.0709 18.4335 2.1865
-7.4557 14.6844 1.8556
-12.0839 16.8738 2.3389
-14.4916 14.8516 2.3389
-19.5286 6.9671 2.3389
-18.2571 9.8403 2.3389
-16.5652 12.4889 2.3389
-19.7130 0.7764 2.2268
-19.7061 3.8109 2.2648
-18.9400 -8.3587 2.3389
-19.6983 -5.3237 2.3046
-15.5703 -13.6272 2.3389
-19.7105 -2.2227 2.2396
-13.3297 -15.8196 2.3389
-17.4548 -11.1212 2.3389
-5.0194 -20.0592 2.3389
-7.4724 -17.8298 2.1865
-1.9310 -20.5860 2.3389
1.2014 -20.6412 2.3389
-10.7846 -17.6486 2.3389
6.8364 -18.0818 2.1865
4.3063 -20.2235 2.3389
6.7030 -11.8956 1.5442
6.7021 -12.5166 1.7761
6.7151 -8.9576 1.4003
6.7181 -6.5912 1.1770
6.6345 -4.7786 1.0223
6.7200 -3.4350 0.9434
6.7216 -2.2339 0.8851
6.7229 -1.1485 0.8521
6.7242 -0.1180 0.8400
6.6417 0.8961 0.8368
6.7296 1.9773 0.8755
6.7310 3.1478 0.9273
6.7326 4.4990 1.0102
6.6507 6.0819 1.1241
6.7421 8.3649 1.3398
6.6619 11.4559 1.6524
6.4249 16.3191 2.1865
4.1569 18.2961 2.3389
1.3452 18.7150 2.3389
-1.4977 18.7035 2.3389
-4.3060 18.2618 2.3389
-6.5578 16.2665 2.1865
-11.8886 14.5066 2.3389
-8.9390 15.0872 2.1865
-13.9411 12.5416 2.3389
-15.6723 10.2892 2.3389
-18.0209 5.1357 2.3389
-17.0427 7.8014 2.3389
-18.5848 2.3535 2.3389
-18.7217 -0.4812 2.3389
-17.7134 -6.0479 2.3389
-18.4289 -3.3032 2.3389
-16.5920 -8.6524 2.3389
-13.2439 -13.2072 2.3389
-11.0944 -15.0537 2.3389
-15.0906 -11.0571 2.3389
-8.1250 -15.4759 2.1865
-5.7699 -16.7473 2.2161
-3.3490 -18.3913 2.3389
-0.5319 -18.6855 2.3389
2.2973 -18.5515 2.3389
6.6547 -14.6437 2.0123
4.7434 -16.8200 2.1865
6.7050 -10.2742 1.5346
6.7169 -7.5076 1.2599
6.7195 -5.5375 1.0887
6.7193 -4.0058 0.9779
6.7209 -2.7308 0.9067
6.7224 -1.6043 0.8635
6.7237 -0.5567 0.8427
6.6439 0.4595 0.8316
6.7304 2.6288 0.9018
6.7290 1.5098 0.8609
6.7319 3.8905 0.9701
6.7409 7.3315 1.2421
6.7337 5.3974 1.0765
6.7441 10.0335 1.5075
6.7486 14.3300 1.9748
4.9898 16.8145 2.1865
-0.2784 18.7614 2.3389
-3.1096 18.5036 2.3389
-5.7584 17.4845 2.2948
-7.4486 14.6705 2.0513
-10.9210 15.2501 2.3389
-13.0972 13.4227 2.3389
-14.9716 11.2875 2.3389
-16.5012 8.8940 2.3389
-17.6509 6.2973 2.3389
-18.3947 3.5573 2.3389
2.5591 18.5876 2.3389
-18.7157 0.7373 2.3389
-18.0713 -4.8839 2.3389
-17.1214 -7.5561 2.3389
-18.6069 -2.0982 2.3389
-15.7792 -10.0535 2.3389
-12.0507 -14.3016 2.3389
-9.1147 -14.9157 2.1865
-14.0759 -12.3193 2.3389
-4.5379 -18.1351 2.3389
-6.7556 -16.1194 2.1865
-1.7458 -18.6115 2.3389
1.0862 -18.6615 2.3389
6.1807 -16.3475 2.1865
3.8933 -18.2837 2.3389
6.7029 -11.8954 1.7080
6.7020 -12.5163 1.9470
6.7150 -8.9575 1.5350
6.7181 -6.5911 1.2902
6.6345 -4.7785 1.1207
6.7200 -3.4349 1.0342
6.7215 -2.2339 0.9704
6.7229 -1.1485 0.9341
6.7242 -0.1180 0.9209
6.6417 0.8961 0.9174
6.7295 1.9773 0.9599
6.7326 4.4990 1.1077
6.6507 6.0819 1.2326
6.7309 3.1478 1.0167
6.7420 8.3649 1.4691
5.8593 14.8824 2.1865
3.7909 16.6853 2.3389
1.2267 17.0672 2.3389
-1.3658 17.0567 2.3389
-3.9269 16.6540 2.3389
-5.9805 14.8344 2.1865
-8.1521 13.7591 2.1865
6.6618 11.4558 1.8118
-12.7142 11.4380 2.3389
-14.2934 9.3840 2.3389
-10.8422 13.2299 2.3389
-16.4361 4.6841 2.3389
-16.9508 2.1466 2.3389
-15.5435 7.1152 2.3389
-16.8094 -3.0129 2.3389
-16.1572 -5.5165 2.3389
-17.0761 -0.4388 2.3389
-13.7654 -10.0861 2.3389
-15.1346 -7.8923 2.3389
-12.0811 -12.0476 2.3389
-10.1205 -13.7322 2.3389
-7.4119 -14.1175 2.1865
-3.0551 -16.7773 2.3389
-5.5553 -16.1242 2.3389
-0.4852 -17.0458 2.3389
2.0957 -16.9235 2.3389
4.6288 -16.4134 2.3389
6.5963 -14.5152 2.1865
6.7049 -10.2740 1.6823
6.7169 -7.5075 1.3811
6.7194 -5.5374 1.1935
6.7192 -4.0058 1.0721
6.7223 -1.6043 0.9467
6.7236 -0.5567 0.9239
6.6439 0.4595 0.9118
6.7209 -2.7307 0.9940
6.7289 1.5098 0.9439
6.7318 3.8905 1.0637
6.7336 5.3974 1.1804
6.7303 2.6288 0.9887
6.7440 10.0334 1.6530
6.7408 7.3315 1.3620
6.8140 14.4690 2.1865
4.7054 15.8564 2.2610
-0.2539 17.1095 2.3389
-2.8358 16.8744 2.3389
-5.3522 16.2514 2.3389
-7.2406 14.2608 2.1865
2.3338 16.9511 2.3389
-11.9446 12.2414 2.3389
-9.9597 13.9077 2.3389
-13.6543 10.2944 2.3389
-15.0495 8.1116 2.3389
-16.7772 3.2446 2.3389
-16.0985 5.7435 2.3389
-17.0704 0.6725 2.3389
-16.9716 -1.9138 2.3389
-15.6174 -6.8923 2.3389
-14.3935 -9.1705 2.3389
-12.8400 -11.2375 2.3389
-10.9928 -13.0460 2.3389
-8.3146 -13.6065 2.1865
-6.1627 -14.7046 2.1865
-4.1397 -16.5435 2.3389
-1.5926 -16.9783 2.3389
0.9908 -17.0238 2.3389
3.5516 -16.6792 2.3389
5.6383 -14.9128 2.1865
-16.4835 -4.4547 2.3389
6.7028 -11.8952 1.8723
6.9174 -12.9188 2.1865
6.7149 -8.9574 1.6701
6.7180 -6.5910 1.4038
6.6344 -4.7784 1.2194
6.7199 -3.4349 1.1253
6.7215 -2.2339 1.0559
6.7228 -1.1485 1.0165
6.7241 -0.1179 1.0021
6.6416 0.8962 0.9984
6.7295 1.9773 1.0446
6.7309 3.1477 1.1064
6.7325 4.4990 1.2055
6.6506 6.0818 1.3414
6.7419 8.3648 1.5988
6.6617 11.4556 1.9718
5.3837 13.6747 2.1865
3.4833 15.3311 2.3389
1.1272 15.6820 2.3389
-1.2549 15.6723 2.3389
-3.6081 15.3023 2.3389
-5.7588 14.2846 2.2914
-7.4905 12.6426 2.1865
-9.9625 12.1565 2.3389
-11.6828 10.5101 2.3389
-13.1341 8.6228 2.3389
-14.2831 6.5382 2.3389
-15.1035 4.3043 2.3389
-15.5768 1.9727 2.3389
-15.6923 -0.4032 2.3389
-15.4475 -2.7688 2.3389
-14.8484 -5.0696 2.3389
-13.9090 -7.2532 2.3389
-12.6509 -9.2694 2.3389
-11.1031 -11.0723 2.3389
-8.6953 -11.7983 2.1865
-6.8120 -12.9749 2.1865
-5.1057 -14.8194 2.3389
-2.8079 -15.4197 2.3389
-0.4460 -15.6665 2.3389
1.9261 -15.5541 2.3389
4.2542 -15.0852 2.3389
6.0625 -13.3405 2.1865
6.7048 -10.2738 1.8304
6.7168 -7.5074 1.5027
6.7194 -5.5374 1.2987
6.7192 -4.0057 1.1665
6.7208 -2.7307 1.0816
6.7223 -1.6043 1.0301
6.7236 -0.5567 1.0054
6.6438 0.4595 0.9922
6.7289 1.5098 1.0272
6.7303 2.6288 1.0760
6.7318 3.8905 1.1576
6.7336 5.3974 1.2846
6.7407 7.3314 1.4822
6.7439 10.0333 1.7989
6.2612 13.2951 2.1865
4.4726 15.0717 2.3389
2.1444 15.5753 2.3389
-0.2333 15.7208 2.3389
-2.6056 15.5049 2.3389
-4.9179 14.9325 2.3389
-6.6530 13.1035 2.1865
-8.5552 11.9466 2.1865
-10.9755 11.2483 2.3389
-12.5467 9.4594 2.3389
-13.8290 7.4538 2.3389
-14.7931 5.2778 2.3389
-15.4172 2.9816 2.3389
-15.6869 0.6180 2.3389
-15.5965 -1.7587 2.3389
-15.1481 -4.0938 2.3389
-14.3525 -6.3340 2.3389
-13.2280 -8.4279 2.3389
-11.8005 -10.3277 2.3389
-10.1029 -11.9900 2.3389
-7.6417 -12.5052 2.1865
-5.7683 -13.7635 2.2268
-3.8047 -15.2048 2.3389
-1.4637 -15.6044 2.3389
0.9107 -15.6463 2.3389
3.2643 -15.3295 2.3389
5.1820 -13.7060 2.1865
6.7027 -11.8950 2.0372
6.3978 -11.9483 2.1865
6.7148 -8.9572 1.8058
6.7179 -6.5909 1.5179
6.6343 -4.7784 1.3184
6.7199 -3.4348 1.2167
6.7214 -2.2338 1.1417
6.7228 -1.1485 1.0991
6.7241 -0.1179 1.0836
6.6416 0.8962 1.0796
6.7294 1.9773 1.1296
6.7308 3.1477 1.1964
6.7324 4.4990 1.3036
6.6505 6.0818 1.4506
6.7418 8.3647 1.7290
6.8307 11.7463 2.1865
4.9783 12.6449 2.1865
3.2209 14.1765 2.3389
1.0423 14.5009 2.3389
-1.1604 14.4920 2.3389
-3.3364 14.1499 2.3389
-5.4355 13.4826 2.3389
-8.6121 10.5087 2.1865
-10.8033 9.7189 2.3389
-12.1455 7.9738 2.3389
-13.2082 6.0462 2.3389
-13.9671 3.9805 2.3389
-6.9265 11.6906 2.1865
-14.4050 1.8243 2.3389
-14.5121 -0.3729 2.3389
-14.2860 -2.5605 2.3389
-13.7322 -4.6885 2.3389
-12.8636 -6.7079 2.3389
-11.7002 -8.5728 2.3389
-8.0421 -10.9120 2.1865
-6.3003 -12.0003 2.1865
-10.2689 -10.2403 2.3389
-4.7222 -13.7063 2.3389
-2.5970 -14.2616 2.3389
-0.4125 -14.4898 2.3389
1.7815 -14.3859 2.3389
3.9347 -13.9522 2.3389
6.7047 -10.2736 1.9790
6.7167 -7.5073 1.6248
6.7193 -5.5373 1.4042
6.7191 -4.0057 1.2613
6.7208 -2.7307 1.1695
5.6071 -12.3385 2.1865
6.7235 -0.5566 1.0871
6.7222 -1.6042 1.1139
6.6438 0.4595 1.0729
6.7288 1.5098 1.1107
6.7317 3.8905 1.2518
6.7335 5.3973 1.3891
6.7406 7.3313 1.6029
6.7302 2.6288 1.1635
6.7438 10.0332 1.9454
5.7897 12.2939 2.1865
4.1357 13.9367 2.3389
1.9829 14.4023 2.3389
-0.2157 14.5368 2.3389
-4.5475 13.8079 2.3389
-2.4094 14.3371 2.3389
-6.1520 12.1168 2.1865
-7.9110 11.0470 2.1865
-10.1492 10.4015 2.3389
-12.7882 6.8928 2.3389
-11.6022 8.7473 2.3389
-13.6800 4.8807 2.3389
-14.2573 2.7574 2.3389
-14.5070 0.5716 2.3389
-14.4236 -1.6264 2.3389
-14.0093 -3.7860 2.3389
-12.2338 -7.7945 2.3389
-10.9138 -9.5516 2.3389
-13.2736 -5.8579 2.3389
-7.0676 -11.5658 2.1865
-5.6037 -13.3708 2.3389
-3.5190 -14.0628 2.3389
-1.3538 -14.4325 2.3389
-8.7351 -10.3666 2.1865
0.8423 -14.4712 2.3389
4.7928 -12.6766 2.1865
3.0191 -14.1782 2.3389
6.6536 -11.8080 2.1865
5.9492 -11.1105 2.1865
6.7147 -8.9571 1.9419
6.7179 -6.5908 1.6323
6.6343 -4.7783 1.4179
6.7198 -3.4348 1.3085
6.7214 -2.2338 1.2279
6.7227 -1.1484 1.1821
6.7240 -0.1179 1.1654
6.6415 0.8962 1.1611
6.7294 1.9773 1.2149
6.7308 3.1477 1.2868
6.7324 4.4990 1.4020
6.6505 6.0818 1.5602
6.7418 8.3646 1.8596
6.3507 10.9210 2.1865
4.7121 11.9687 2.2260
2.9945 13.1801 2.3389
0.9690 13.4817 2.3389
-1.0789 13.4734 2.3389
-3.1019 13.1553 2.3389
-6.4397 10.8691 2.1865
-8.0069 9.7703 2.1865
-10.0442 9.0361 2.3389
-5.0534 12.5350 2.3389
-11.2922 7.4137 2.3389
-12.9863 3.7011 2.3389
-13.3936 1.6963 2.3389
-13.4934 -0.3467 2.3389
-13.2834 -2.3808 2.3389
-12.2805 5.6216 2.3389
-12.7686 -4.3594 2.3389
-10.8795 -7.9714 2.3389
-11.9611 -6.2373 2.3389
-7.4781 -10.1467 2.1865
-8.9265 -8.9016 2.1865
-4.3912 -12.7453 2.3389
-2.4150 -13.2617 2.3389
-5.8586 -11.1588 2.1865
1.6566 -13.3774 2.3389
-0.3836 -13.4740 2.3389
3.6588 -12.9740 2.3389
5.2140 -11.4734 2.1865
6.7166 -7.5072 1.7473
6.8883 -10.5549 2.1865
6.7192 -5.5372 1.5100
6.7191 -4.0056 1.3564
6.7222 -1.6042 1.1979
6.7207 -2.7306 1.2577
6.7235 -0.5566 1.1692
6.6437 0.4596 1.1539
6.7288 1.5098 1.1946
6.7317 3.8905 1.3463
6.7301 2.6288 1.2514
6.7334 5.3973 1.4941
6.7406 7.3313 1.7240
5.3828 11.4299 2.1865
3.8450 12.9572 2.3389
7.0474 10.4849 2.1866
-0.2006 13.5150 2.3389
-2.2400 13.3294 2.3389
-4.2279 12.8374 2.3389
-7.3551 10.2708 2.1865
-8.8212 9.0405 2.1865
-5.7728 11.3700 2.2068
1.8435 13.3900 2.3389
-11.8899 6.4087 2.3389
-10.7871 8.1328 2.3389
-13.2562 2.5637 2.3389
-12.7192 4.5380 2.3389
-13.4886 0.5315 2.3389
-13.0262 -3.5203 2.3389
-12.3424 -5.4468 2.3389
-13.4112 -1.5122 2.3389
-8.1225 -9.6396 2.1865
-11.3757 -7.2477 2.3389
-10.1483 -8.8817 2.3389
-5.2108 -12.4333 2.3389
-1.2589 -13.4206 2.3389
-3.2723 -13.0769 2.3389
0.7832 -13.4567 2.3389
2.8074 -13.1842 2.3389
4.6986 -12.4273 2.3051
6.1871 -10.9800 2.1865
-6.5721 -10.7548 2.1865
5.5579 -10.3797 2.1865
7.0634 -9.4222 2.1866
6.7178 -6.5907 1.7473
6.6342 -4.7782 1.5177
6.7198 -3.4347 1.4007
6.7213 -2.2337 1.3144
6.7227 -1.1484 1.2654
6.7240 -0.1179 1.2475
6.6415 0.8962 1.2429
6.7293 1.9773 1.3006
6.7307 3.1477 1.3775
6.7323 4.4989 1.5009
6.6504 6.0817 1.6702
6.7417 8.3646 1.9908
5.9321 10.2011 2.1865
4.6246 11.7466 2.3389
2.7971 12.3112 2.3389
0.9051 12.5929 2.3389
-1.0077 12.5851 2.3389
-2.8974 12.2881 2.3389
-4.7203 11.7087 2.3389
-6.0152 10.1527 2.1865
-7.4792 9.1264 2.1865
-8.7710 7.8907 2.1865
-10.5482 6.9253 2.3389
-11.4714 5.2513 2.3389
-12.1309 3.4573 2.3389
-12.5116 1.5846 2.3389
-12.6049 -0.3238 2.3389
-12.4089 -2.2240 2.3389
-11.9282 -4.0725 2.3389
-11.1740 -5.8268 2.3389
-10.1637 -7.4469 2.3389
-8.3393 -8.3160 2.1865
-6.9862 -9.4793 2.1865
-5.7563 -10.9639 2.2996
-4.1024 -11.9071 2.3389
-2.2562 -12.3895 2.3389
-0.3583 -12.5879 2.3389
1.5476 -12.4976 2.3389
3.4182 -12.1207 2.3389
4.8809 -10.7407 2.1909
6.4352 -9.8607 2.1865
6.7166 -7.5070 1.8703
6.7192 -5.5371 1.6164
6.7190 -4.0055 1.4520
6.7207 -2.7306 1.3463
6.7221 -1.6042 1.2823
6.7234 -0.5566 1.2516
6.6437 0.4596 1.2352
6.7287 1.5098 1.2788
6.7301 2.6288 1.3396
6.7316 3.8905 1.4413
6.7334 5.3973 1.5994
6.7405 7.3312 1.8456
6.5826 9.7934 2.1865
5.0280 10.6765 2.1865
3.5916 12.1030 2.3389
-0.1873 12.6241 2.3389
1.7220 12.5073 2.3389
-2.0923 12.4507 2.3389
-5.7150 11.2561 2.3389
-6.8703 9.5938 2.1865
-3.9491 11.9912 2.3389
-8.2398 8.4447 2.1865
-10.0763 7.5969 2.3389
-11.1065 5.9865 2.3389
-11.8814 4.2391 2.3389
-12.3831 2.3949 2.3389
-12.6004 0.4965 2.3389
-12.1687 -3.2885 2.3389
-11.5301 -5.0883 2.3389
-12.5283 -1.4126 2.3389
-10.6271 -6.7708 2.3389
-8.8629 -7.7567 2.1865
-6.1398 -10.0473 2.1865
-7.5882 -9.0054 2.1865
-4.8681 -11.6155 2.3389
-1.1761 -12.5380 2.3389
-3.0571 -12.2168 2.3389
0.7317 -12.5717 2.3389
2.6228 -12.3171 2.3389
4.4539 -11.7801 2.3389
5.7802 -10.2578 2.1865
5.2135 -9.7365 2.1865
6.6253 -8.8379 2.1865
6.7177 -6.5906 1.8627
6.6341 -4.7782 1.6180
6.7197 -3.4347 1.4933
6.7212 -2.2337 1.4012
6.7226 -1.1484 1.3490
6.7239 -0.1179 1.3300
6.6414 0.8962 1.3251
6.7292 1.9773 1.3866
6.7307 3.1477 1.4687
6.7323 4.4989 1.6002
6.6503 6.0817 1.7807
6.9448 8.6166 2.1865
5.5638 9.5677 2.1865
4.3374 11.0172 2.3389
2.6234 11.5467 2.3389
0.8489 11.8109 2.3389
-0.9452 11.8036 2.3389
-2.7175 11.5250 2.3389
-4.4272 10.9816 2.3389
-5.7679 9.7353 2.2354
-7.0148 8.5598 2.1865
-8.2264 7.4008 2.1865
-9.8934 6.4954 2.3389
-10.7595 4.9254 2.3389
-11.3781 3.2428 2.3389
-11.7353 1.4863 2.3389
-11.8230 -0.3037 2.3389
-11.6393 -2.0861 2.3389
-11.1885 -3.8199 2.3389
-10.4812 -5.4655 2.3389
-8.9124 -6.5301 2.1865
-7.8224 -7.8005 2.1865
-6.5533 -8.8917 2.1865
-5.4919 -10.4604 2.3389
-3.8482 -11.1692 2.3389
-0.3361 -11.8079 2.3389
-2.1164 -11.6218 2.3389
3.2064 -11.3697 2.3389
1.4517 -11.7232 2.3389
6.0364 -9.2496 2.1865
4.7081 -10.3602 2.2530
6.7191 -5.5370 1.7232
6.7206 -2.7305 1.4353
6.7165 -7.5069 1.9939
6.7189 -4.0055 1.5479
6.7234 -0.5566 1.3343
6.6436 0.4596 1.3169
6.7300 2.6288 1.4282
6.7287 1.5098 1.3634
6.7333 5.3973 1.7053
6.7315 3.8904 1.5367
6.1738 9.1853 2.1865
4.7268 10.0371 2.1916
6.7221 -1.6041 1.3671
1.6150 11.7306 2.3389
-0.1757 11.8401 2.3389
-1.9624 11.6775 2.3389
6.7404 7.3312 1.9677
-3.7039 11.2465 2.3389
3.3685 11.3514 2.3389
-5.3601 10.5572 2.3389
-7.7283 7.9205 2.1865
-6.4437 8.9982 2.1865
-10.4172 5.6149 2.3389
-11.6148 2.2464 2.3389
-8.8350 6.6611 2.1865
-11.1440 3.9760 2.3389
-11.8187 0.4657 2.3389
-11.4141 -3.0846 2.3389
-9.9683 -6.3510 2.3389
-10.8152 -4.7728 2.3389
-8.3135 -7.2758 2.1865
-7.1179 -8.4472 2.1865
-11.7512 -1.3249 2.3389
-2.8676 -11.4598 2.3389
-4.5664 -10.8957 2.3389
-1.1032 -11.7611 2.3389
0.6864 -11.7927 2.3389
5.4220 -9.6221 2.1865
2.4603 -11.5539 2.3389
-5.7742 -9.4491 2.1922
4.1779 -11.0501 2.3389
4.9080 -9.1658 2.1865
6.2370 -8.3198 2.1865
6.7176 -6.5905 1.9787
6.6341 -4.7781 1.7188
6.7196 -3.4346 1.5863
6.7212 -2.2337 1.4885
6.7226 -1.1484 1.4331
6.7239 -0.1178 1.4128
6.6413 0.8962 1.4077
6.7292 1.9773 1.4730
6.7306 3.1477 1.5602
6.7322 4.4989 1.7000
6.6502 6.0816 1.8918
6.5369 8.1106 2.1865
5.2371 9.0059 2.1865
4.0827 10.3702 2.3389
2.4693 10.8686 2.3389
0.7990 11.1172 2.3389
-0.8896 11.1104 2.3389
-2.5579 10.8482 2.3389
-4.1672 10.3367 2.3389
-5.6805 9.5878 2.3389
-6.6029 8.0572 2.1865
-7.7435 6.9664 2.1865
-8.7058 5.7157 2.1865
-10.1279 4.6364 2.3389
-10.7104 3.0525 2.3389
-11.0468 1.3991 2.3389
-11.1294 -0.2858 2.3389
-10.9566 -1.9637 2.3389
-10.5324 -3.5959 2.3389
-9.2237 -4.8097 2.1865
-8.3899 -6.1472 2.1865
-7.3638 -7.3432 2.1865
-6.1691 -8.3706 2.1865
-5.1701 -9.8473 2.3389
-3.6226 -10.5146 2.3389
-1.9923 -10.9407 2.3389
-0.3164 -11.1159 2.3389
1.3667 -11.0362 2.3389
3.0185 -10.7033 2.3389
4.6013 -10.1250 2.3389
5.6826 -8.7074 2.1865
6.9337 -7.7498 2.1865
6.7190 -5.5369 1.8305
6.7189 -4.0054 1.6443
6.7205 -2.7305 1.5246
6.7220 -1.6041 1.4522
6.7233 -0.5566 1.4175
6.6436 0.4596 1.3990
6.7286 1.5098 1.4484
6.7300 2.6288 1.5173
6.7315 3.8904 1.6325
6.7332 5.3972 1.8116
7.0504 7.6684 2.1866
5.8113 8.6460 2.1865
4.6960 9.9718 2.3132
3.1707 10.6848 2.3389
1.5202 11.0416 2.3389
-0.1654 11.1447 2.3389
-1.8471 10.9917 2.3389
-3.4864 10.5861 2.3389
-5.0453 9.9373 2.3389
-6.0653 8.4698 2.1865
-7.2745 7.4555 2.1865
-8.3163 6.2701 2.1865
-9.1668 4.9410 2.1865
-10.4900 3.7427 2.3389
-10.9332 2.1146 2.3389
-11.1253 0.4384 2.3389
-11.0619 -1.2472 2.3389
-10.7447 -2.9036 2.3389
-10.1809 -4.4929 2.3389
-8.7724 -5.5890 2.1865
-7.8262 -6.8492 2.1865
-6.7007 -7.9521 2.1865
-5.7529 -9.4142 2.3201
-4.2988 -10.2571 2.3389
-2.6996 -10.7882 2.3389
-1.0386 -11.0719 2.3389
0.6462 -11.1016 2.3389
2.3161 -10.8768 2.3389
3.9330 -10.4024 2.3389
5.1042 -9.0581 2.1865
4.7135 -8.8026 2.2236
5.8900 -7.8570 2.1865
7.0105 -6.8778 2.1866
6.6340 -4.7780 1.8200
6.7196 -3.4346 1.6797
6.7211 -2.2336 1.5762
6.7225 -1.1483 1.5175
6.7238 -0.1178 1.4961
6.6413 0.8962 1.4907
6.7291 1.9773 1.5599
6.7305 3.1477 1.6523
6.7321 4.4989 1.8003
6.6502 6.0816 2.0034
6.1726 7.6587 2.1865
4.9452 8.5041 2.1865
3.8552 9.7923 2.3389
2.3317 10.2629 2.3389
0.7545 10.4976 2.3389
-0.8401 10.4912 2.3389
-2.4153 10.2436 2.3389
-3.9349 9.7607 2.3389
-5.3640 9.0536 2.3389
-6.2350 7.6083 2.1865
-7.3120 6.5782 2.1865
-8.2209 5.3974 2.1865
-8.9406 4.0928 2.1865
-10.1139 2.8825 2.3389
-10.4316 1.3213 2.3389
-10.5098 -0.2699 2.3389
-10.3467 -1.8543 2.3389
-9.9461 -3.3957 2.3389
-8.7104 -4.5421 2.1865
-7.9231 -5.8051 2.1865
-5.8259 -7.9049 2.1865
-4.8825 -9.2995 2.3389
-3.4211 -9.9297 2.3389
-1.8815 -10.3322 2.3389
-0.2988 -10.4977 2.3389
1.2907 -10.4223 2.3389
2.8506 -10.1080 2.3389
4.3453 -9.5618 2.3389
5.3665 -8.2230 2.1865
6.5479 -7.3185 2.1865
-6.9541 -6.9347 2.1865
6.7188 -4.0054 1.7412
6.7190 -5.5369 1.9383
6.7205 -2.7304 1.6145
6.7219 -1.6041 1.5378
6.7233 -0.5565 1.5010
6.7286 1.5098 1.5338
6.6435 0.4596 1.4814
6.7314 3.8904 1.7287
6.6572 7.2408 2.1865
6.7332 5.3972 1.9185
6.7299 2.6288 1.6068
5.4875 8.1643 2.1865
2.9940 10.0894 2.3389
1.4354 10.4263 2.3389
-0.1562 10.5236 2.3389
-1.7442 10.3791 2.3389
-4.7641 9.3835 2.3389
-5.7731 8.0618 2.2040
-3.2921 9.9961 2.3389
-6.8692 7.0401 2.1865
-8.6562 4.6658 2.1865
-9.9057 3.5343 2.3389
-10.3244 1.9969 2.3389
-10.5058 0.4141 2.3389
4.4836 9.5207 2.3389
-10.1466 -2.7420 2.3389
-10.4461 -1.1777 2.3389
-8.9879 -3.9663 2.1865
-8.2842 -5.2780 2.1865
-7.3907 -6.4682 2.1865
-6.3279 -7.5096 2.1865
-5.4770 -8.9627 2.3389
-2.5494 -10.1881 2.3389
-7.8530 5.9208 2.1865
-0.9808 -10.4560 2.3389
2.1873 -10.2718 2.3389
3.7143 -9.8238 2.3389
0.6102 -10.4841 2.3389
4.8203 -8.5544 2.1865
-4.0597 -9.6865 2.3389
4.6924 -8.7632 2.3374
5.5781 -7.4408 2.1865
6.6390 -6.5133 2.1865
6.6340 -4.7780 1.9218
6.7195 -3.4345 1.7737
6.7211 -2.2336 1.6644
6.7225 -1.1483 1.6024
6.7238 -0.1178 1.5799
6.6412 0.8963 1.5741
6.7291 1.9773 1.6472
6.7305 3.1477 1.7448
6.7321 4.4989 1.9011
6.8730 6.2854 2.1865
5.8452 7.2524 2.1865
4.7167 8.1110 2.2023
3.6507 9.2729 2.3389
2.2080 9.7184 2.3389
0.7145 9.9407 2.3389
-0.7955 9.9346 2.3389
-2.2872 9.7002 2.3389
-3.7262 9.2429 2.3389
-5.0794 8.5733 2.3389
-5.9043 7.2047 2.1865
-6.9242 6.2294 2.1865
-7.7849 5.1111 2.1865
-8.4665 3.8758 2.1865
-8.9536 2.5519 2.1865
-9.8786 1.2512 2.3389
-9.9527 -0.2555 2.3389
-9.1599 -1.6416 2.1865
-8.8054 -3.0062 2.1865
-7.5033 -5.4976 2.1865
-6.5858 -6.5673 2.1865
-5.7593 -7.8144 2.2824
-8.2489 -4.3014 2.1865
-3.2400 -9.4039 2.3389
-0.2830 -9.9418 2.3389
1.2223 -9.8704 2.3389
-1.7819 -9.7850 2.3389
2.6997 -9.5727 2.3389
