ply
format ascii 1.0
element vertex 2149
property float32 x
property float32 y
property float32 z
end_header
-21.3263 10.4742 2.1112
-21.3294 6.7188 1.9879
-21.3321 3.3067 1.9199
-21.3350 0.0515 1.8984
-21.3344 -3.2017 1.9205
-21.3396 -10.3532 2.1135
-21.3361 -6.6078 1.9894
-20.2015 -13.9123 2.1865
-19.1111 -17.9638 2.3389
-12.8784 -22.8313 2.3389
-16.1784 -20.6336 2.3389
-5.4837 -25.6241 2.3389
-1.5568 -26.1564 2.3389
-7.7461 -20.4425 1.9510
2.4055 -26.0923 2.3389
5.9018 -23.7761 2.1865
6.6219 -10.8966 1.1377
6.6305 -15.9179 1.5388
6.7178 -8.0172 0.9330
6.6347 -5.8423 0.7883
6.7205 -4.3133 0.7118
6.7222 -2.9957 0.6557
6.7250 -0.7869 0.6027
6.7291 0.2349 0.5990
6.7304 1.2684 0.6090
6.7237 -1.8453 0.6209
6.7318 2.3634 0.6341
6.7333 3.5829 0.6776
6.6512 4.9561 0.7366
6.7452 9.2966 1.0193
6.7422 6.8284 0.8519
6.7494 13.0822 1.3061
4.5537 25.9733 2.3389
0.5851 26.3641 2.3389
-3.3971 26.1501 2.3389
-6.8250 23.6854 2.1865
-11.0358 23.9415 2.3389
6.7601 20.0674 1.8784
-17.6623 19.5520 2.3389
-14.5164 21.9984 2.3389
-21.1940 12.5147 2.1865
-19.7073 16.0923 2.2593
-21.3256 8.5677 2.0426
-21.3346 1.6947 1.9039
-21.3330 5.0095 1.9484
2.1756 -23.0088 2.3389
5.2546 -20.9585 2.1865
6.6305 -15.8134 1.7350
6.6219 -10.8392 1.2849
6.7178 -7.9791 1.0549
6.6347 -5.8147 0.8920
6.7205 -4.2911 0.8059
6.7222 -2.9768 0.7428
6.7236 -1.8283 0.7037
6.7250 -0.7709 0.6833
6.7291 0.2507 0.6795
6.7304 1.2847 0.6911
6.7333 3.6032 0.7696
6.7317 2.3812 0.7199
6.6512 4.9803 0.8371
6.7421 6.8605 0.9688
6.7452 9.3426 1.1602
6.8871 20.6041 2.1865
6.7493 13.1578 1.4886
0.4612 23.2375 2.3389
3.9598 22.9014 2.3389
-3.0481 23.0407 2.3389
-6.0643 20.8616 2.1865
-9.1393 19.7056 2.1865
-15.6087 17.1975 2.3389
-18.0178 14.6426 2.3389
-19.6992 11.5699 2.3023
-20.1440 8.0382 2.1865
-21.1171 4.9067 2.1865
-21.3345 1.6446 2.1590
-21.3340 -1.5911 2.1595
-21.1024 -4.8480 2.1865
-20.1219 -7.9715 2.1865
-12.8403 19.3597 2.3389
-17.9899 -14.5460 2.3389
-19.6981 -11.5036 2.3054
-12.8275 -19.2372 2.3389
-15.5858 -17.0873 2.3389
-9.1407 -19.5824 2.1865
-6.0823 -20.7339 2.1865
-3.0869 -22.9046 2.3389
3.8826 -22.7837 2.3389
0.4024 -23.1076 2.3389
6.8006 -20.5100 2.1865
6.7160 -9.3493 1.1644
6.7026 -13.1446 1.4928
6.7195 -5.0566 0.8501
6.7192 -6.8700 0.9717
6.7213 -3.6174 0.7713
6.7243 -1.3001 0.6915
6.6419 -0.2633 0.6709
6.7229 -2.3961 0.7209
6.7310 1.8132 0.7030
6.7297 0.7552 0.6832
6.7341 4.2772 0.8039
6.7325 2.9622 0.7414
6.7435 7.9708 1.0514
6.7409 5.8794 0.9010
6.7550 16.0020 1.7483
6.7467 10.9841 1.2978
2.2440 23.1332 2.3389
-1.2699 23.2073 2.3389
5.3345 21.0608 2.1865
-4.7546 22.7491 2.3389
-7.5999 20.3509 2.1865
-7.5114 13.4672 1.5524
-14.2442 18.3478 2.3389
-19.0547 13.2584 2.3389
-16.8431 15.9854 2.3389
-19.7155 9.6831 2.2140
-20.6824 6.5150 2.1865
-21.3320 3.3068 2.1776
-21.3351 0.0516 2.1532
-21.3345 -3.2016 2.1781
-20.6788 -6.4043 2.1865
-19.7151 -9.5650 2.2142
-19.0570 -13.1243 2.3389
-14.2686 -18.1978 2.3389
-11.3585 -20.1366 2.3389
-7.6569 -20.2070 2.1865
-16.8544 -15.8425 2.3389
-4.8367 -22.6007 2.3389
-1.3731 -23.0704 2.3389
2.1217 -23.0138 2.3389
6.6304 -15.9175 1.7447
5.2055 -20.9708 2.1865
6.6218 -10.8964 1.2899
6.7177 -8.0171 1.0578
6.7204 -4.3133 0.8071
6.6346 -5.8423 0.8938
6.7236 -1.8453 0.7041
6.7221 -2.9957 0.7435
6.7290 0.2349 0.6794
6.7250 -0.7869 0.6835
6.7317 2.3634 0.7193
6.7332 3.5829 0.7687
6.6511 4.9560 0.8357
6.7421 6.8284 0.9664
6.7303 1.2684 0.6908
6.7493 13.0821 1.4818
6.9355 20.5882 2.1866
4.0135 22.8920 2.3389
0.5157 23.2363 2.3389
6.7451 9.2965 1.1565
-2.9940 23.0478 2.3389
-9.0931 19.7270 2.1865
-6.0154 20.8757 2.1865
-12.7950 19.3898 2.3389
-15.5684 17.2341 2.3389
-19.6986 11.6317 2.3054
-20.1252 8.0855 2.1865
-17.9835 14.6849 2.3389
-21.3345 1.6948 2.1594
-21.1057 4.9562 2.1865
1.9455 -20.5754 2.3389
4.7220 -18.8341 2.1973
6.6304 -15.8130 1.9401
6.6218 -10.8390 1.4369
6.7177 -7.9790 1.1797
6.6346 -5.8147 0.9975
6.7204 -4.2910 0.9013
6.7221 -2.9768 0.8307
6.7236 -1.8283 0.7871
6.7250 -0.7709 0.7643
6.7290 0.2507 0.7601
6.7317 2.3812 0.8054
6.7332 3.6032 0.8610
6.7303 1.2847 0.7731
6.6511 4.9803 0.9365
6.7421 6.8604 1.0839
6.7451 9.3425 1.2981
6.1552 18.4145 2.1865
3.5390 20.4675 2.3389
0.4122 20.7678 2.3389
6.7492 13.1576 1.6656
-2.7241 20.5920 2.3389
-8.1681 17.6117 2.1865
-11.4762 17.3030 2.3389
-13.9508 15.3710 2.3389
-16.1046 13.0879 2.3389
-17.8884 10.5064 2.3389
-5.7536 19.7929 2.3212
-19.2615 7.6861 2.3389
-19.7028 4.5782 2.2822
-19.7121 1.5195 2.2315
-19.7024 -4.5262 2.2834
-19.7120 -1.4701 2.2319
-17.8686 -10.4351 2.3389
-16.0857 -13.0063 2.3389
-19.2445 -7.6227 2.3389
-11.4704 -17.2019 2.3389
-13.9365 -15.2790 2.3389
-5.7541 -19.6151 2.3132
-8.1738 -17.5110 2.1865
-2.7605 -20.4822 2.3389
3.4720 -20.3740 2.3389
6.0815 -18.3409 2.1865
0.3599 -20.6638 2.3389
6.7025 -13.1443 1.6693
6.7159 -9.3492 1.3021
6.7194 -5.0565 0.9507
6.7192 -6.8699 1.0867
6.7213 -3.6174 0.8627
6.7229 -2.3960 0.8063
6.7243 -1.3001 0.7735
6.7296 0.7552 0.7642
6.6418 -0.2632 0.7504
6.7324 2.9622 0.8294
6.7340 4.2772 0.8993
6.7310 1.8132 0.7864
6.7409 5.8794 1.0080
6.7434 7.9707 1.1763
6.7549 16.0017 1.9562
6.7466 10.9840 1.4520
2.0055 20.6746 2.3389
4.7675 18.8226 2.1865
-4.2493 20.3314 2.3389
-1.1350 20.7408 2.3389
-6.7923 18.1883 2.1865
-7.5045 13.4548 1.7353
-12.7310 16.3989 2.3389
-15.0544 14.2878 2.3389
-18.6177 9.1440 2.3389
-17.0317 11.8508 2.3389
-19.6941 6.2038 2.3292
-19.7132 0.0477 2.2254
-19.7086 3.0552 2.2506
-19.6939 -6.0991 2.3291
-18.6203 -9.0338 2.3389
-17.0395 -11.7346 2.3389
-15.0706 -14.1657 2.3389
-19.7085 -2.9576 2.2506
-12.7588 -16.2722 2.3389
-10.1569 -18.0064 2.3389
-6.8470 -18.0696 2.1865
-4.3252 -20.2104 2.3389
1.8973 -20.5799 2.3389
-1.2279 -20.6305 2.3389
4.7151 -18.9952 2.2148
6.6217 -10.8962 1.4425
6.6303 -15.9172 1.9510
6.7177 -8.0169 1.1830
6.6346 -5.8422 0.9996
6.7204 -4.3132 0.9027
6.7236 -1.8452 0.7876
6.7221 -2.9956 0.8316
6.7249 -0.7868 0.7645
6.7290 0.2349 0.7600
6.7303 1.2684 0.7728
6.7317 2.3634 0.8047
6.7332 3.5829 0.8600
6.6511 4.9560 0.9349
6.7450 9.2964 1.2939
6.7420 6.8283 1.0813
6.1984 18.4000 2.1865
3.5869 20.4591 2.3389
0.4609 20.7668 2.3389
-2.6758 20.5983 2.3389
6.7491 13.0819 1.6580
-5.7507 19.9572 2.3389
-8.1269 17.6309 2.1865
-11.4357 17.3299 2.3389
-16.0740 13.1256 2.3389
-13.9148 15.4037 2.3389
-17.8638 10.5483 2.3389
-19.2435 7.7313 2.3389
-19.7026 4.6268 2.2834
-19.7120 1.5660 2.2318
1.7590 -18.6028 2.3389
4.5445 -18.1259 2.3389
6.7558 -16.1122 2.1865
6.6217 -10.8388 1.5893
6.7176 -7.9788 1.3049
6.6345 -5.8146 1.1034
6.7203 -4.2910 0.9970
6.7221 -2.9767 0.9190
6.7235 -1.8283 0.8707
6.7249 -0.7708 0.8456
6.7290 0.2508 0.8409
6.7316 2.3812 0.8910
6.7331 3.6032 0.9527
6.7303 1.2847 0.8553
6.7420 6.8604 1.1993
6.6511 4.9803 1.0362
6.7450 9.3424 1.4364
5.5625 16.6413 2.1865
3.1982 18.4964 2.3389
0.3725 18.7678 2.3389
6.7491 13.1575 1.8430
-5.2392 18.0237 2.3389
-2.4617 18.6090 2.3389
-10.3714 15.6373 2.3389
-12.6081 13.8916 2.3389
-14.5550 11.8285 2.3389
-16.1676 9.4958 2.3389
-17.4091 6.9471 2.3389
-7.3817 15.9161 2.1865
-18.6760 1.4398 2.3389
-18.6730 -1.3925 2.3389
-18.2516 4.2410 2.3389
-17.3969 -6.8918 2.3389
-16.1537 -9.4335 2.3389
-18.2433 -4.1910 2.3389
-12.5996 -13.8133 2.3389
-14.5423 -11.7583 2.3389
-10.3703 -15.5521 2.3389
-5.2602 -17.9315 2.3389
-7.3900 -15.8318 2.1865
-2.4958 -18.5184 2.3389
0.3254 -18.6827 2.3389
5.4984 -16.5823 2.1865
3.1391 -18.4206 2.3389
6.7024 -13.1440 1.8464
6.7191 -6.8698 1.2020
6.7158 -9.3490 1.4403
6.7193 -5.0564 1.0516
6.7228 -2.3960 0.8920
6.7212 -3.6173 0.9543
6.6418 -0.2632 0.8302
6.7296 0.7553 0.8455
6.7242 -1.3001 0.8557
6.7309 1.8132 0.8700
6.7324 2.9622 0.9177
6.7340 4.2772 0.9950
6.7433 7.9706 1.3016
6.7408 5.8794 1.1154
6.7465 10.9839 1.6067
6.8234 16.1642 2.1865
4.6087 18.1957 2.3389
1.8124 18.6836 2.3389
-3.8401 18.3735 2.3389
-1.0257 18.7434 2.3389
-7.4975 13.4424 1.9184
-6.1383 16.4370 2.1865
-13.6056 12.9129 2.3389
-11.5056 14.8204 2.3389
-15.3930 10.7107 2.3389
-17.8751 5.6308 2.3389
-16.8271 8.2646 2.3389
-18.5135 2.8700 2.3389
-18.7281 0.0454 2.3389
-18.5144 -2.7783 2.3389
-16.8329 -8.1666 2.3389
-17.8777 -5.5366 2.3389
-15.4043 -10.6084 2.3389
-13.6248 -12.8066 2.3389
-11.5350 -14.7114 2.3389
-6.1905 -16.3370 2.1865
-3.9105 -18.2727 2.3389
-1.1102 -18.6526 2.3389
1.7154 -18.6068 2.3389
4.5020 -18.1365 2.3389
6.7180 -16.1279 2.1865
6.7176 -8.0168 1.3085
-8.5845 -15.2188 2.1865
6.6216 -10.8960 1.5954
6.6345 -5.8421 1.1057
6.7235 -1.8452 0.8712
6.7249 -0.7868 0.8458
6.7203 -4.3131 0.9985
6.7289 0.2350 0.8408
6.7316 2.3634 0.8903
6.7331 3.5829 0.9515
6.6510 4.9560 1.0344
6.7220 -2.9956 0.9199
6.7449 9.2964 1.4317
6.7302 1.2684 0.8549
6.7490 13.0817 1.8346
3.2415 18.4889 2.3389
6.7419 6.8283 1.1964
5.6015 16.6283 2.1865
-5.1970 18.0358 2.3389
0.4165 18.7669 2.3389
-7.3444 15.9333 2.1865
-10.3348 15.6616 2.3389
-12.5755 13.9211 2.3389
-16.1453 9.5337 2.3389
-14.5273 11.8627 2.3389
-2.4181 18.6147 2.3389
-17.3929 6.9879 2.3389
-18.6727 1.4835 2.3389
-18.2417 4.2838 2.3389
1.6047 -16.9708 2.3389
4.1458 -16.5357 2.3389
6.1631 -14.6985 2.1865
6.6216 -10.8386 1.7422
6.7175 -7.9787 1.4304
6.6345 -5.8145 1.2096
6.7203 -4.2909 1.0929
6.7220 -2.9767 1.0074
6.7235 -1.8282 0.9545
6.7248 -0.7708 0.9270
6.7289 0.2508 0.9219
6.7302 1.2847 0.9378
6.7316 2.3812 0.9770
6.7331 3.6032 1.0446
6.6510 4.9803 1.1362
6.7419 6.8604 1.3150
6.7449 9.3423 1.5750
6.7490 13.1573 2.0209
5.0726 15.1757 2.1865
2.9165 16.8674 2.3389
0.3397 17.1148 2.3389
-2.2449 16.9699 2.3389
-4.7778 16.4363 2.3389
-6.7316 14.5145 2.1865
-8.8419 13.3313 2.1865
-11.4981 12.6687 2.3389
-13.2739 10.7875 2.3389
-14.7449 8.6603 2.3389
-15.8777 6.3360 2.3389
-16.6465 3.8681 2.3389
-17.0341 1.3132 2.3389
-17.0319 -1.2701 2.3389
-16.6404 -3.8227 2.3389
-15.8689 -6.2864 2.3389
-14.7352 -8.6051 2.3389
-13.2656 -10.7260 2.3389
-11.4938 -12.6009 2.3389
-8.8439 -13.2629 2.1865
-6.7417 -14.4427 2.1865
-4.7988 -16.3584 2.3389
-2.2769 -16.8939 2.3389
0.2968 -17.0438 2.3389
2.8638 -16.8047 2.3389
5.0160 -15.1275 2.1865
6.7023 -13.1438 2.0239
6.7157 -9.3489 1.5788
6.7190 -6.8697 1.3177
6.7193 -5.0563 1.1528
6.7212 -3.6173 1.0461
6.7228 -2.3959 0.9779
6.7242 -1.3000 0.9381
6.6417 -0.2632 0.9102
6.7295 0.7553 0.9270
6.7309 1.8132 0.9539
6.7323 2.9622 1.0062
6.7339 4.2772 1.0910
6.7407 5.8793 1.2230
6.7432 7.9706 1.4272
6.7464 10.9837 1.7618
6.2225 14.7406 2.1865
4.2028 16.5931 2.3389
1.6527 17.0380 2.3389
-0.9353 17.0925 2.3389
-3.5019 16.7553 2.3389
-5.7650 15.4376 2.2519
-7.4905 13.4300 2.1017
-10.4926 13.5156 2.3389
-12.4080 11.7763 2.3389
-14.0384 9.7682 2.3389
-15.3466 7.5375 2.3389
-16.3029 5.1356 2.3389
-16.8857 2.6177 2.3389
-17.0819 0.0415 2.3389
-16.8875 -2.5341 2.3389
-16.3072 -5.0502 2.3389
-15.3547 -7.4493 2.3389
-14.0519 -9.6770 2.3389
-12.4288 -11.6825 2.3389
-10.5227 -13.4203 2.3389
-7.8313 -13.8834 2.1865
-5.7675 -15.2208 2.2331
-3.5674 -16.6697 2.3389
-1.0128 -17.0163 2.3389
1.5649 -16.9746 2.3389
4.1070 -16.5454 2.3389
6.1286 -14.7129 2.1865
6.6215 -10.8958 1.7489
6.7175 -8.0167 1.4344
6.6344 -5.8420 1.2120
6.7202 -4.3131 1.0946
6.7220 -2.9955 1.0085
6.7235 -1.8452 0.9551
6.7248 -0.7868 0.9273
6.7289 0.2350 0.9218
6.7302 1.2684 0.9374
6.7316 2.3634 0.9762
6.7331 3.5829 1.0433
6.6510 4.9560 1.1342
6.7419 6.8282 1.3119
6.7448 9.2963 1.5699
6.7489 13.0816 2.0117
5.1081 15.1638 2.1865
2.9560 16.8605 2.3389
0.3798 17.1139 2.3389
-2.2051 16.9752 2.3389
-4.7393 16.4474 2.3389
-6.6976 14.5302 2.1865
-8.8107 13.3521 2.1865
-11.4685 12.6957 2.3389
-13.2486 10.8186 2.3389
-14.7247 8.6949 2.3389
-15.8629 6.3732 2.3389
-16.6375 3.9071 2.3389
-17.0311 1.3531 2.3389
1.4749 -15.5981 2.3389
3.8104 -15.1981 2.3389
5.6645 -13.5094 2.1865
6.6215 -10.8384 1.8955
6.7175 -7.9786 1.5563
6.6344 -5.8144 1.3161
6.7202 -4.2908 1.1892
6.7219 -2.9766 1.0962
6.7234 -1.8282 1.0387
6.7248 -0.7708 1.0087
6.7289 0.2508 1.0032
6.7302 1.2848 1.0205
6.7315 2.3812 1.0632
6.7330 3.6032 1.1368
6.6509 4.9803 1.2365
6.7418 6.8603 1.4311
6.7448 9.3422 1.7141
6.7093 13.0800 2.1865
4.7150 14.1058 2.2120
2.6797 15.4979 2.3389
0.3121 15.7252 2.3389
-2.0626 15.5922 2.3389
-4.3899 15.1019 2.3389
-6.1851 13.3362 2.1865
-8.1242 12.2493 2.1865
-10.5650 11.6407 2.3389
-12.1969 9.9123 2.3389
-13.5489 7.9578 2.3389
-14.5901 5.8222 2.3389
-15.2969 3.5545 2.3389
-15.6535 1.2069 2.3389
-15.6519 -1.1671 2.3389
-15.2925 -3.5130 2.3389
-14.5838 -5.7773 2.3389
-13.5423 -7.9084 2.3389
-12.1919 -9.8577 2.3389
-10.5637 -11.5811 2.3389
-8.1283 -12.1898 2.1865
-6.1963 -13.2743 2.1865
-4.4106 -15.0351 2.3389
-2.0927 -15.5274 2.3389
0.2728 -15.6651 2.3389
2.6321 -15.4453 2.3389
4.7114 -14.2088 2.2345
6.6550 -13.0510 2.1865
6.7156 -9.3487 1.7178
6.7190 -6.8696 1.4337
6.7192 -5.0563 1.2544
6.7211 -3.6172 1.1383
6.7241 -1.3000 1.0208
6.6417 -0.2632 0.9904
6.7295 0.7553 1.0087
6.7227 -2.3959 1.0640
6.7322 2.9622 1.0950
6.7339 4.2772 1.1874
6.7308 1.8132 1.0381
6.7406 5.8793 1.3310
6.7432 7.9705 1.5533
6.7463 10.9836 1.9174
5.7173 13.5440 2.1865
1.5185 15.6547 2.3389
-0.8594 15.7047 2.3389
-3.2176 15.3950 2.3389
3.8616 15.2460 2.3389
-5.5017 14.7325 2.3389
-7.1603 12.8379 2.1865
-11.4011 10.8208 2.3389
-9.0128 11.6095 2.1865
-12.8995 8.9758 2.3389
-14.1019 6.9262 2.3389
-15.5169 2.4056 2.3389
-14.9810 4.7193 2.3389
-15.6976 0.0381 2.3389
-14.9864 -4.6411 2.3389
-14.1114 -6.8461 2.3389
-12.9143 -8.8936 2.3389
-11.4229 -10.7369 2.3389
-15.5193 -2.3288 2.3389
-7.1977 -12.7601 2.1865
-9.0411 -11.5307 2.1865
-3.2789 -15.3212 2.3389
-0.9309 -15.6399 2.3389
1.4383 -15.6015 2.3389
3.7748 -15.2069 2.3389
-5.5523 -14.6526 2.3389
5.6328 -13.5226 2.1865
6.7174 -8.0165 1.5606
6.6344 -5.8419 1.3188
6.6214 -10.8956 1.9028
6.7202 -4.3130 1.1910
6.7219 -2.9955 1.0973
6.7234 -1.8451 1.0393
6.7248 -0.7867 1.0090
6.7288 0.2350 1.0031
6.7315 2.3634 1.0623
6.7330 3.5829 1.1353
6.7301 1.2684 1.0200
6.7418 6.8282 1.4277
6.6509 4.9560 1.2344
6.7448 9.2962 1.7086
6.7399 13.0643 2.1865
2.7160 15.4916 2.3389
4.7198 14.0110 2.1988
0.3490 15.7244 2.3389
-2.0261 15.5970 2.3389
-6.1539 13.3507 2.1865
-4.3545 15.1122 2.3389
-8.0955 12.2684 2.1865
-12.1737 9.9409 2.3389
-10.5378 11.6654 2.3389
-13.5303 7.9896 2.3389
-15.2886 3.5904 2.3389
-14.5765 5.8564 2.3389
-15.6507 1.2435 2.3389
1.3641 -14.4269 2.3389
3.5243 -14.0569 2.3389
5.2392 -12.4950 2.1865
6.6214 -10.8382 2.0494
6.7174 -7.9784 1.6827
6.6343 -5.8143 1.4230
6.7201 -4.2908 1.2858
6.7219 -2.9766 1.1853
6.7234 -1.8282 1.1231
6.7247 -0.7708 1.0908
6.7288 0.2508 1.0848
6.7301 1.2848 1.1035
6.7315 2.3812 1.1497
6.7330 3.6032 1.2293
6.6509 4.9802 1.3372
6.7418 6.8603 1.5477
6.7447 9.3421 1.8537
6.2039 12.0948 2.1865
4.6100 13.7920 2.3389
2.4778 14.3304 2.3389
0.2886 14.5405 2.3389
-1.9072 14.4175 2.3389
-4.0592 13.9642 2.3389
-5.7725 12.4466 2.2069
-7.5123 11.3267 2.1865
-9.1329 10.0629 2.1865
-11.2786 9.1661 2.3389
-12.5290 7.3589 2.3389
-13.4921 5.3841 2.3389
-14.1460 3.2872 2.3389
-14.4761 1.1161 2.3389
-14.4749 -1.0793 2.3389
-14.1428 -3.2489 2.3389
-13.4877 -5.3430 2.3389
-11.2760 -9.1171 2.3389
-9.1336 -10.0134 2.1865
-12.5247 -7.3141 2.3389
-7.5179 -11.2743 2.1865
-4.0794 -13.9061 2.3389
-5.7727 -12.3668 2.2025
-1.9356 -14.3615 2.3389
2.4345 -14.2856 2.3389
4.5613 -13.7560 2.3389
6.1552 -12.0709 2.1865
6.7155 -9.3485 1.8572
0.2523 -14.4890 2.3389
6.7191 -5.0562 1.3563
6.7210 -3.6171 1.2307
6.7226 -2.3958 1.1505
6.7189 -6.8695 1.5501
6.7241 -1.3000 1.1038
6.7294 0.7553 1.0908
6.7308 1.8132 1.1225
6.6416 -0.2631 1.0710
6.7338 4.2772 1.2840
6.7322 2.9622 1.1841
6.7406 5.8793 1.4393
6.7431 7.9705 1.6797
7.1142 11.5827 2.1867
3.5707 14.0974 2.3389
5.2866 12.5238 2.1865
1.4041 14.4753 2.3389
-0.7946 14.5216 2.3389
-5.0872 13.6227 2.3389
-6.6210 11.8710 2.1865
-8.3340 10.7352 2.1865
-2.9751 14.2352 2.3389
-10.5426 10.0060 2.3389
-13.0405 6.4050 2.3389
-13.8537 4.3642 2.3389
-11.9284 8.3001 2.3389
-14.3496 2.2246 2.3389
-14.3525 -2.1536 2.3389
-13.8599 -4.2922 2.3389
-7.6102 -3.6920 1.3639
-11.9440 -8.2253 2.3389
-10.5649 -9.9303 2.3389
-8.3621 -10.6646 2.1865
-6.6572 -11.8019 2.1865
-5.1354 -13.5524 2.3389
-14.5170 0.0353 2.3389
-3.0327 -14.1708 2.3389
-0.8610 -14.4656 2.3389
3.4914 -14.0651 2.3389
5.2099 -12.5072 2.1865
6.7173 -8.0164 1.6874
6.6343 -5.8418 1.4259
6.7201 -4.3129 1.2877
1.3303 -14.4301 2.3389
6.7219 -2.9954 1.1865
6.7247 -0.7867 1.0910
6.7288 0.2350 1.0847
6.7301 1.2684 1.1030
6.6213 -10.8954 2.0573
6.7314 2.3634 1.1487
6.6508 4.9559 1.3349
6.7417 6.8282 1.5440
6.7447 9.2961 1.8477
6.7329 3.5829 1.2277
6.2322 12.0802 2.1865
2.5114 14.3245 2.3389
6.7234 -1.8451 1.1238
0.3227 14.5398 2.3389
-4.0265 13.9737 2.3389
-5.7707 12.5195 2.2174
-1.8735 14.4219 2.3389
-7.4858 11.3443 2.1865
4.6423 13.7811 2.3389
-9.1093 10.0841 2.1865
-13.4795 5.4157 2.3389
-12.5118 7.3882 2.3389
-14.1383 3.3203 2.3389
-11.2571 9.1925 2.3389
-14.4735 1.1500 2.3389
1.2685 -13.4158 2.3389
3.2773 -13.0717 2.3389
4.8810 -11.6409 2.1906
6.5692 -10.7528 2.1865
6.7173 -7.9783 1.8095
6.6343 -5.8142 1.5302
6.7201 -4.2907 1.3828
6.7218 -2.9765 1.2747
6.7233 -1.8281 1.2078
6.7247 -0.7707 1.1731
6.7287 0.2508 1.1667
6.7300 1.2848 1.1868
6.7314 2.3812 1.2365
6.7329 3.6031 1.3222
6.6508 4.9802 1.4383
6.7417 6.8602 1.6646
6.7446 9.3421 1.9938
5.7678 11.2446 2.1865
4.2859 12.8224 2.3389
2.3036 13.3228 2.3389
0.2683 13.5182 2.3389
-1.7731 13.4038 2.3389
-3.7738 12.9825 2.3389
-6.9843 10.5306 2.1865
-8.4910 9.3556 2.1865
-10.4861 8.5220 2.3389
-11.6488 6.8419 2.3389
-12.5444 5.0060 2.3389
-13.1526 3.0564 2.3389
-5.6878 12.2639 2.3389
-13.4589 -1.0035 2.3389
-13.1504 -3.0208 2.3389
-12.5415 -4.9681 2.3389
-13.4598 1.0378 2.3389
-10.4852 -8.4778 2.3389
-8.4932 -9.3112 2.1865
-11.6462 -6.8010 2.3389
-5.7007 -12.2126 2.3389
-3.7935 -12.9315 2.3389
-6.9909 -10.4839 2.1865
-1.7999 -13.3550 2.3389
2.2639 -13.2844 2.3389
4.2416 -12.7918 2.3389
5.7238 -11.2247 2.1865
6.7154 -9.3484 1.9972
6.7188 -6.8694 1.6670
0.2346 -13.4735 2.3389
6.7210 -3.6171 1.3236
6.7191 -5.0561 1.4585
6.7240 -1.2999 1.1871
6.6416 -0.2631 1.1518
6.7294 0.7553 1.1731
6.7307 1.8132 1.2073
6.7226 -2.3958 1.2373
6.7337 4.2771 1.3810
6.7321 2.9622 1.2736
6.7430 7.9704 1.8067
4.9150 11.6434 2.1865
6.7405 5.8793 1.5481
3.3196 13.1063 2.3389
6.6137 10.7679 2.1865
1.3054 13.4576 2.3389
-2.7660 13.2344 2.3389
-6.1555 11.0365 2.1865
-0.7388 13.5006 2.3389
-9.1631 8.6966 2.1865
-4.7296 12.6650 2.3389
-11.0903 7.7170 2.3389
-12.8808 4.0577 2.3389
-12.1245 5.9551 2.3389
-13.3421 2.0685 2.3389
-7.7483 9.9807 2.1865
-13.3452 -2.0024 2.3389
-12.8875 -3.9910 2.3389
-7.6005 -3.6873 1.4649
-11.1064 -7.6484 2.3389
-13.4980 0.0329 2.3389
-7.7758 -9.9169 2.1865
-4.7755 -12.6025 2.3389
-6.1906 -10.9745 2.1865
-2.8201 -13.1776 2.3389
-9.1839 -8.6325 2.1865
3.2467 -13.0793 2.3389
4.8447 -11.6305 2.1865
1.2371 -13.4187 2.3389
6.7173 -8.0163 1.8146
-0.8006 -13.4518 2.3389
6.6342 -5.8417 1.5334
6.7201 -4.3129 1.3849
6.5440 -10.7681 2.1865
6.7218 -2.9954 1.2760
6.7287 0.2351 1.1666
6.7247 -0.7867 1.1734
6.7300 1.2684 1.1863
6.7314 2.3634 1.2355
6.7329 3.5829 1.3205
6.6508 4.9559 1.4357
6.7416 6.8281 1.6607
4.3160 12.8123 2.3389
2.3348 13.3174 2.3389
0.3000 13.5175 2.3389
6.7446 9.2960 1.9874
5.7941 11.2310 2.1865
-3.7434 12.9913 2.3389
-5.6590 12.2772 2.3389
-6.9596 10.5470 2.1865
-10.4661 8.5466 2.3389
6.7233 -1.8450 1.2086
-8.4691 9.3755 2.1865
-13.1455 3.0872 2.3389
-1.7417 13.4080 2.3389
-13.4573 1.0693 2.3389
-12.5327 5.0354 2.3389
-11.6327 6.8692 2.3389
1.1851 -12.5338 2.3389
3.0619 -12.2122 2.3389
4.7064 -11.2243 2.2609
6.1372 -10.0457 2.1865
6.7172 -7.9782 1.9369
6.6342 -5.8141 1.6380
6.7200 -4.2906 1.4802
6.7218 -2.9765 1.3645
6.7233 -1.8281 1.2929
6.7246 -0.7707 1.2557
6.7287 0.2509 1.2489
6.7300 1.2848 1.2705
6.7314 2.3812 1.3237
6.7329 3.6031 1.4154
6.6507 4.9802 1.5397
6.7416 6.8602 1.7821
6.9089 9.5697 2.1866
5.3875 10.5032 2.1865
4.0033 11.9769 2.3389
2.1517 12.4443 2.3389
0.2506 12.6267 2.3389
-1.6562 12.5200 2.3389
-3.5250 12.1265 2.3389
-5.3127 11.4553 2.3389
-6.5238 9.8364 2.1865
-7.9313 8.7389 2.1865
-9.1567 7.4416 2.1865
-10.8812 6.3911 2.3389
-11.7180 4.6762 2.3389
-12.2863 2.8551 2.3389
-12.5734 0.9695 2.3389
-12.5728 -0.9374 2.3389
-12.2848 -2.8220 2.3389
-11.7161 -4.6412 2.3389
-10.8799 -6.3535 2.3389
-7.9346 -8.6987 2.1865
-9.1573 -7.4041 2.1865
-6.5312 -9.7944 2.1865
-5.3259 -11.4095 2.3389
-1.6816 -12.4769 2.3389
0.2192 -12.5876 2.3389
2.1150 -12.4109 2.3389
-3.5441 -12.0812 2.3389
3.9627 -11.9507 2.3389
6.8685 -9.5615 2.1865
5.3474 -10.4866 2.1865
6.7187 -6.8693 1.7843
6.7209 -3.6170 1.4168
6.7190 -5.0560 1.5612
6.7225 -2.3957 1.3245
6.6415 -0.2631 1.2330
6.7293 0.7554 1.2558
6.7240 -1.2999 1.2707
6.7321 2.9622 1.3634
6.7307 1.8132 1.2924
6.7404 5.8792 1.6573
6.7429 7.9703 1.9342
6.1777 10.0580 2.1865
6.7337 4.2771 1.4784
4.7093 11.1562 2.2429
1.2193 12.5702 2.3389
-0.6900 12.6103 2.3389
-2.5836 12.3617 2.3389
3.1007 12.2421 2.3389
-4.4177 11.8300 2.3389
-7.2375 9.3228 2.1865
-8.5591 8.1236 2.1865
-5.7743 10.3530 2.1959
-11.3256 5.5628 2.3389
-12.0322 3.7905 2.3389
-10.3594 7.2085 2.3389
-12.6092 0.0308 2.3389
-12.4667 -1.8706 2.3389
-12.0393 -3.7283 2.3389
-10.3757 -7.1452 2.3389
-8.5799 -8.0645 2.1865
-7.2644 -9.2646 2.1865
-5.7835 -10.2528 2.1865
-4.4615 -11.7738 2.3389
-7.5909 -3.6826 1.5661
-12.4634 1.9323 2.3389
-2.6347 -12.3112 2.3389
-0.7480 -12.5673 2.3389
3.0332 -12.2193 2.3389
6.1137 -10.0600 2.1865
6.7172 -8.0161 1.9423
6.6342 -5.8416 1.6413
4.7043 -11.2933 2.2726
6.7200 -4.3128 1.4824
6.7217 -2.9953 1.3659
6.7233 -1.8450 1.2937
6.7287 0.2351 1.2488
6.7246 -0.7867 1.2561
6.7300 1.2685 1.2699
6.7313 2.3635 1.3226
6.7328 3.5829 1.4136
6.7416 6.8281 1.7779
6.6507 4.9559 1.5370
6.9313 9.5535 2.1866
5.4121 10.4906 2.1865
4.0314 11.9675 2.3389
0.2802 12.6261 2.3389
-1.6269 12.5238 2.3389
2.1808 12.4392 2.3389
-3.4965 12.1347 2.3389
1.1558 -12.5365 2.3389
-6.5008 9.8517 2.1865
-5.2859 11.4677 2.3389
-9.1393 7.4632 2.1865
-11.7070 4.7037 2.3389
-10.8662 6.4166 2.3389
-12.2796 2.8839 2.3389
-12.5712 0.9990 2.3389
-7.9108 8.7575 2.1865
1.1117 -11.7573 2.3389
2.8722 -11.4557 2.3389
4.5672 -10.8923 2.3389
5.7570 -9.4232 2.1865
6.7171 -7.9780 2.0648
6.6341 -5.8140 1.7462
6.7200 -4.2906 1.5779
6.7217 -2.9764 1.4546
6.7232 -1.8280 1.3784
6.7246 -0.7707 1.3388
6.7286 0.2509 1.3315
6.7299 1.2848 1.3545
6.7313 2.3812 1.4113
6.7328 3.6031 1.5091
6.6507 4.9802 1.6416
6.7415 6.8601 1.9001
6.4798 8.9753 2.1865
5.0529 9.8509 2.1865
3.7546 11.2330 2.3389
2.0180 11.6713 2.3389
0.2350 11.8424 2.3389
-1.5533 11.7423 2.3389
-3.3060 11.3733 2.3389
-4.9827 10.7439 2.3389
-6.1186 9.2255 2.1865
-7.4388 8.1963 2.1865
-8.5882 6.9797 2.1865
-10.2057 5.9944 2.3389
-10.9907 4.3860 2.3389
-11.5239 2.6780 2.3389
-11.7934 0.9094 2.3389
-11.7930 -0.8792 2.3389
-10.9898 -4.3534 2.3389
-11.5230 -2.6469 2.3389
-8.5897 -6.9451 2.1865
-10.2055 -5.9597 2.3389
-6.1265 -9.1875 2.1865
-4.9959 -10.7026 2.3389
-7.4430 -8.1597 2.1865
-3.3245 -11.3328 2.3389
-1.5774 -11.7040 2.3389
1.9840 -11.6421 2.3389
3.7172 -11.2104 2.3389
5.0161 -9.8369 2.1865
6.4430 -8.9690 2.1865
0.2056 -11.8079 2.3389
6.7187 -6.8691 1.9022
6.7189 -5.0559 1.6644
6.7209 -3.6170 1.5104
6.7239 -1.2999 1.3547
6.7225 -2.3957 1.4120
6.7293 0.7554 1.3389
6.7306 1.8132 1.3779
6.6415 -0.2631 1.3145
6.7320 2.9622 1.4536
6.7336 4.2771 1.5763
6.7404 5.8792 1.7670
6.7428 7.9703 2.0622
4.6058 10.9111 2.3389
2.9081 11.4817 2.3389
5.7940 9.4334 2.1865
1.1436 11.7893 2.3389
-0.6472 11.8270 2.3389
-4.1433 11.0952 2.3389
-2.4231 11.5939 2.3389
-5.7516 10.3123 2.3321
-6.7880 8.7439 2.1865
-10.6226 5.2175 2.3389
-8.0276 7.6192 2.1865
-11.2856 3.5553 2.3389
-11.8271 0.0289 2.3389
-11.6936 -1.7545 2.3389
-9.0832 6.3205 2.1865
-11.6901 1.8125 2.3389
-11.2928 -3.4971 2.3389
-9.0985 -6.2659 2.1865
-7.5812 -3.6779 1.6675
-8.0482 -7.5647 2.1865
-6.8143 -8.6906 2.1865
-5.7534 -10.1994 2.3188
-0.7017 -11.7888 2.3389
-4.1851 -11.0444 2.3389
-2.4715 -11.5485 2.3389
1.0842 -11.7599 2.3389
2.8453 -11.4623 2.3389
6.7171 -8.0160 2.0706
6.6341 -5.8415 1.7498
6.7199 -4.3127 1.5803
5.7349 -9.4367 2.1865
6.7217 -2.9953 1.4561
6.7232 -1.8450 1.3792
6.7286 0.2351 1.3314
6.7299 1.2685 1.3539
6.7246 -0.7866 1.3391
6.7313 2.3635 1.4101
6.6506 4.9559 1.6388
6.7415 6.8280 1.8955
6.7328 3.5829 1.5072
6.5008 8.9601 2.1865
3.7810 11.2242 2.3389
4.5417 -10.9030 2.3389
5.0759 9.8390 2.1865
-1.5258 11.7459 2.3389
2.0454 11.6666 2.3389
-4.9576 10.7555 2.3389
-3.2793 11.3810 2.3389
-7.4196 8.2137 2.1865
-8.5719 6.9998 2.1865
-10.1917 6.0183 2.3389
-10.9804 4.4118 2.3389
-6.0970 9.2399 2.1865
-11.5177 2.7050 2.3389
0.2628 11.8418 2.3389
-11.7913 0.9370 2.3389
1.0466 -11.0684 2.3389
2.7039 -10.7844 2.3389
4.2996 -10.2540 2.3389
5.4196 -8.8710 2.1865
6.6963 -7.9532 2.1865
6.6341 -5.8139 1.8549
6.7199 -4.2905 1.6762
6.7217 -2.9764 1.5452
6.7232 -1.8280 1.4642
6.7245 -0.7706 1.4222
6.7286 0.2509 1.4145
6.7299 1.2848 1.4390
6.7312 2.3812 1.4993
6.7327 3.6031 1.6032
6.6506 4.9802 1.7440
6.7415 6.8601 2.0186
6.0992 8.4482 2.1865
4.7561 9.2723 2.1865
3.5341 10.5732 2.3389
1.8995 10.9857 2.3389
0.2212 11.1468 2.3389
-1.4621 11.0525 2.3389
-3.1118 10.7052 2.3389
-4.6901 10.1128 2.3389
-5.7748 8.7072 2.1924
-7.0019 7.7150 2.1865
-8.0840 6.5699 2.1865
-8.9806 5.2749 2.1865
-10.3456 4.1286 2.3389
-10.8477 2.5209 2.3389
-11.1014 0.8561 2.3389
-11.1012 -0.8276 2.3389
-10.8472 -2.4916 2.3389
-10.3453 -4.0981 2.3389
-8.9812 -5.2447 2.1865
-8.0862 -6.5379 2.1865
-7.0067 -7.6814 2.1865
-5.7750 -8.6603 2.1894
-4.7032 -10.0755 2.3389
-3.1298 -10.6687 2.3389
-1.4850 -11.0182 2.3389
0.1936 -11.1160 2.3389
3.4994 -10.5535 2.3389
1.8678 -10.9600 2.3389
4.7293 -9.2742 2.1898
6.7186 -6.8690 2.0206
6.0654 -8.4434 2.1865
6.7208 -3.6169 1.6045
6.7189 -5.0559 1.7680
6.7239 -1.2998 1.4391
6.6414 -0.2630 1.3964
6.7292 0.7554 1.4223
6.7305 1.8132 1.4638
6.7224 -2.3957 1.5000
6.7335 4.2771 1.6746
6.7403 5.8792 1.8773
6.7294 7.9545 2.1865
6.7320 2.9622 1.5442
4.3353 10.2703 2.3389
5.4537 8.8793 2.1865
1.0764 11.0968 2.3389
-0.6092 11.1323 2.3389
-2.2807 10.9128 2.3389
-3.8999 10.4435 2.3389
-5.4296 9.7351 2.3389
-6.3894 8.2304 2.1865
-7.5563 7.1718 2.1865
-8.5499 5.9494 2.1865
-9.9991 4.9113 2.3389
2.7373 10.8072 2.3389
-10.6232 3.3467 2.3389
-11.1332 0.0272 2.3389
-11.0077 -1.6516 2.3389
-10.6306 -3.2920 2.3389
-7.5716 -3.6732 1.7691
-11.0041 1.7061 2.3389
-7.5764 -7.1212 2.1865
-8.5651 -5.8982 2.1865
-5.4632 -9.6850 2.3389
-6.4150 -8.1812 2.1865
-2.3267 -10.8719 2.3389
-3.9399 -10.3973 2.3389
1.0207 -11.0709 2.3389
-0.6606 -11.0981 2.3389
2.6786 -10.7907 2.3389
4.2756 -10.2641 2.3389
6.6776 -7.9689 2.1865
6.6340 -5.8414 1.8587
6.7199 -4.3127 1.6787
6.7216 -2.9952 1.5468
5.3988 -8.8836 2.1865
6.7245 -0.7866 1.4226
6.7286 0.2351 1.4143
6.7299 1.2685 1.4383
6.7312 2.3635 1.4980
6.7231 -1.8449 1.4652
6.6506 4.9559 1.7410
6.7327 3.5829 1.6012
6.1190 8.4339 2.1865
4.7778 9.2611 2.1865
6.7414 6.8280 2.0138
1.9252 10.9813 2.3389
3.5589 10.5649 2.3389
0.2474 11.1462 2.3389
-1.4362 11.0559 2.3389
-3.0867 10.7125 2.3389
-4.6664 10.1238 2.3389
-6.9839 7.7314 2.1865
-8.0686 6.5889 2.1865
-5.7736 8.7498 2.1997
-8.9683 5.2959 2.1865
-10.8418 2.5463 2.3389
-10.3359 4.1529 2.3389
-11.0994 0.8821 2.3389
0.9884 -10.4529 2.3389
2.5535 -10.1847 2.3389
4.0605 -9.6837 2.3389
5.1182 -8.3776 2.1865
6.3238 -7.5108 2.1865
6.6340 -5.8138 1.9641
6.7198 -4.2904 1.7749
6.7216 -2.9763 1.6363
6.7231 -1.8280 1.5505
6.7245 -0.7706 1.5060
6.7285 0.2509 1.4978
6.7298 1.2848 1.5238
6.7312 2.3812 1.5877
6.7327 3.6031 1.6977
6.6505 4.9802 1.8469
6.8955 7.0169 2.1865
5.7593 7.9774 2.1865
4.7008 9.1647 2.2887
3.3371 9.9838 2.3389
1.7936 10.3734 2.3389
0.2089 10.5254 2.3389
-1.3806 10.4364 2.3389
-2.9383 10.1085 2.3389
-4.4286 9.5492 2.3389
-5.7546 8.6767 2.3137
-6.6117 7.2851 2.1865
-7.6335 6.2039 2.1865
-8.4803 4.9811 2.1865
-9.1328 3.6447 2.1865
-10.2436 2.3805 2.3389
-10.4833 0.8085 2.3389
-10.4832 -0.7815 2.3389
-10.2435 -2.3529 2.3389
-9.1331 -3.6178 2.1865
-8.4815 -4.9528 2.1865
-7.6364 -6.1742 2.1865
-6.6170 -7.2541 2.1865
-5.7548 -8.6301 2.3102
-4.4416 -9.5151 2.3389
-2.9557 -10.0754 2.3389
-1.4024 -10.4055 2.3389
0.1828 -10.4979 2.3389
1.7639 -10.3505 2.3389
3.3048 -9.9666 2.3389
4.6985 -9.2139 2.3037
5.7280 -7.9737 2.1865
6.8659 -7.0196 2.1865
6.7188 -5.0558 1.8721
6.7207 -3.6169 1.6990
6.7224 -2.3956 1.5883
6.7238 -1.2998 1.5239
6.6414 -0.2630 1.4787
6.7292 0.7554 1.5062
6.7305 1.8133 1.5502
6.7319 2.9622 1.6353
6.7335 4.2771 1.7734
6.7402 5.8791 1.9880
6.3544 7.5112 2.1865
5.1497 8.3845 2.1865
4.0936 9.6978 2.3389
2.5847 10.2048 2.3389
1.0164 10.4782 2.3389
-0.5752 10.5117 2.3389
-2.1536 10.3045 2.3389
-3.6826 9.8614 2.3389
-5.1270 9.1926 2.3389
-6.0333 7.7717 2.1865
-7.1352 6.7722 2.1865
-8.0735 5.6180 2.1865
-8.8268 4.3356 2.1865
-10.0315 3.1603 2.3389
-10.3913 1.6112 2.3389
-10.5134 0.0258 2.3389
-10.3949 -1.5596 2.3389
-10.0389 -3.1087 2.3389
-7.5614 -3.6682 1.8708
-8.0886 -5.5701 2.1865
-7.1550 -6.7251 2.1865
-6.0582 -7.7261 2.1865
-5.1594 -9.1464 2.3389
-3.7208 -9.8190 2.3389
-2.1973 -10.2673 2.3389
-0.6238 -10.4810 2.3389
0.9639 -10.4552 2.3389
2.5297 -10.1906 2.3389
4.0378 -9.6932 2.3389
5.0986 -8.3895 2.1865
6.3062 -7.5256 2.1865
6.6340 -5.8414 1.9682
6.7198 -4.3126 1.7776
6.7216 -2.9952 1.6380
6.7231 -1.8449 1.5515
6.7245 -0.7866 1.5064
6.7285 0.2351 1.4977
6.7298 1.2685 1.5232
6.7312 2.3635 1.5864
6.7326 3.5829 1.6956
6.6505 4.9559 1.8437
6.9119 7.0007 2.1866
5.7779 7.9639 2.1865
4.7026 9.1155 2.2792
3.3605 9.9760 2.3389
1.8179 10.3691 2.3389
0.2336 10.5249 2.3389
-1.3561 10.4396 2.3389
-2.9146 10.1154 2.3389
-4.4063 9.5595 2.3389
-5.7533 8.7191 2.3214
-6.5947 7.3006 2.1865
-7.6190 6.2218 2.1865
-8.4686 5.0009 2.1865
-9.1243 3.6661 2.1865
-10.2380 2.4045 2.3389
-10.4814 0.8330 2.3389
0.9361 -9.8995 2.3389
2.4184 -9.6455 2.3389
3.8455 -9.1710 2.3389
4.8472 -7.9341 2.1865
5.9889 -7.1131 2.1865
6.9942 -6.1295 2.1866
6.7198 -4.2904 1.8742
6.7215 -2.9763 1.7278
6.7231 -1.8279 1.6373
6.7244 -0.7706 1.5903
6.7285 0.2509 1.5817
6.7298 1.2848 1.6091
6.7311 2.3812 1.6766
6.7326 3.6031 1.7928
6.6505 4.9801 1.9503
6.5296 6.6446 2.1865
5.4537 7.5542 2.1865
4.5491 8.8689 2.3389
3.1600 9.4541 2.3389
1.6984 9.8229 2.3389
0.1978 9.9669 2.3389
-1.3073 9.8826 2.3389
-2.7824 9.5721 2.3389
-4.1937 9.0425 2.3389
-5.5087 8.3060 2.3389
-6.2610 6.8986 2.1865
-7.2286 5.8749 2.1865
-8.0306 4.7169 2.1865
-8.6485 3.4514 2.1865
-9.0684 2.1075 2.1865
-9.9276 0.7656 2.3389
-9.9276 -0.7400 2.3389
-9.0686 -2.0830 2.1865
-8.6492 -3.4261 2.1865
-8.0322 -4.6904 2.1865
-7.2319 -5.8472 2.1865
-6.2666 -6.8699 2.1865
-5.5178 -8.2746 2.3389
-4.2065 -9.0113 2.3389
-2.7992 -9.5420 2.3389
-1.3282 -9.8546 2.3389
0.1731 -9.9421 2.3389
1.6705 -9.8025 2.3389
3.1298 -9.4389 2.3389
5.4247 -7.5515 2.1865
6.5023 -6.6478 2.1865
4.5178 -8.8596 2.3389
6.7187 -5.0557 1.9768
6.7223 -2.3956 1.6772
6.7207 -3.6168 1.7940
6.7237 -1.2998 1.6092
6.7291 0.7554 1.5905
6.6413 -0.2630 1.5615
6.7304 1.8133 1.6369
6.7334 4.2771 1.8727
6.7318 2.9622 1.7269
6.0172 7.1127 2.1865
7.0203 6.1235 2.1866
4.8821 7.9488 2.1891
2.4475 9.6633 2.3389
0.9625 9.9222 2.3389
3.8764 9.1833 2.3389
-2.0393 9.7577 2.3389
-3.4871 9.3382 2.3389
-4.8550 8.7049 2.3389
-0.5447 9.9539 2.3389
-5.7720 7.4353 2.2091
-6.7567 6.4130 2.1865
-7.6453 5.3200 2.1865
-8.3587 4.1057 2.1865
-9.1993 1.4265 2.1865
-8.8807 2.7978 2.1865
-9.2026 -1.3807 2.1865
-8.8875 -2.7521 2.1865
-9.9561 0.0244 2.3389
-7.5509 -3.6631 1.9727
-6.7761 -6.3689 2.1865
-7.6601 -5.2750 2.1865
-5.7732 -7.3627 2.2002
-4.8862 -8.6621 2.3389
-2.0810 -9.7237 2.3389
-3.5238 -9.2991 2.3389
0.9129 -9.9017 2.3389
-0.5908 -9.9261 2.3389
2.3957 -9.6511 2.3389
4.8286 -7.9454 2.1865
5.9722 -7.1270 2.1865
6.9798 -6.1459 2.1866
3.8240 -9.1800 2.3389
6.7197 -4.3125 1.8770
6.7215 -2.9951 1.7296
6.7244 -0.7865 1.5907
6.7230 -1.8448 1.6383
6.7298 1.2685 1.6084
6.7285 0.2352 1.5815
6.7326 3.5828 1.7906
6.6504 4.9558 1.9469
6.5452 6.6293 2.1865
5.4714 7.5414 2.1865
6.7311 2.3635 1.6752
3.1822 9.4467 2.3389
1.7214 9.8189 2.3389
0.2212 9.9664 2.3389
-1.2842 9.8857 2.3389
4.5699 8.8582 2.3389
-2.7600 9.5786 2.3389
-4.1725 9.0523 2.3389
-6.2448 6.9133 2.1865
-5.4892 8.3189 2.3389
-8.0195 4.7357 2.1865
-9.0635 2.1287 2.1865
-7.2148 5.8918 2.1865
-8.6404 3.4717 2.1865
-9.9258 0.7889 2.3389
0.8888 -9.3991 2.3389
2.2961 -9.1579 2.3389
3.6511 -8.7074 2.3389
4.7106 -7.7103 2.2381
5.6861 -6.7534 2.1865
6.6404 -5.8194 2.1865
6.7197 -4.2903 1.9740
6.7215 -2.9762 1.8198
6.7230 -1.8279 1.7245
6.7244 -0.7705 1.6750
6.7284 0.2510 1.6660
6.7297 1.2849 1.6949
6.7311 2.3812 1.7660
6.7325 3.6031 1.8884
6.6504 4.9801 2.0543
6.1989 6.3081 2.1865
5.1775 7.1716 2.1865
4.3187 8.4196 2.3389
2.9999 8.9752 2.3389
1.6124 9.3253 2.3389
0.1878 9.4620 2.3389
-1.2411 9.3820 2.3389
-2.6415 9.0873 2.3389
-3.9812 8.5845 2.3389
-5.2297 7.8853 2.3389
-5.9439 6.5493 2.1865
-6.8626 5.5774 2.1865
-7.6240 4.4781 2.1865
-8.2107 3.2767 2.1865
-8.6094 2.0008 2.1865
-8.8111 0.6795 2.1865
-8.8112 -0.6568 2.1865
-8.6098 -1.9776 2.1865
-8.2117 -3.2528 2.1865
-7.6260 -4.4532 2.1865
-6.8662 -5.5515 2.1865
-5.9497 -6.5226 2.1865
-5.2389 -7.8563 2.3389
-3.9938 -8.5557 2.3389
-2.6577 -9.0596 2.3389
-1.2610 -9.3565 2.3389
0.1644 -9.4395 2.3389
1.5861 -9.3070 2.3389
2.9716 -8.9617 2.3389
4.2894 -8.4117 2.3389
5.1505 -7.1697 2.1865
6.1735 -6.3117 2.1865
7.0560 -5.3095 2.1866
6.7206 -3.6167 1.8896
6.7223 -2.3955 1.7665
6.7237 -1.2997 1.6949
6.6412 -0.2630 1.6447
6.7291 0.7554 1.6753
6.7304 1.8133 1.7242
6.7318 2.9622 1.8190
6.7334 4.2771 1.9725
6.6645 5.8132 2.1865
5.7125 6.7525 2.1865
4.7125 7.6727 2.2258
3.6801 8.7181 2.3389
2.3235 9.1739 2.3389
0.9137 9.4196 2.3389
-0.5171 9.4497 2.3389
-1.9360 9.2634 2.3389
-3.3105 8.8651 2.3389
-4.6090 8.2640 2.3389
-5.7536 7.4116 2.3195
-6.4145 6.0883 2.1865
-7.2582 5.0507 2.1865
-7.9355 3.8978 2.1865
-8.4311 2.6562 2.1865
-8.7337 1.3542 2.1865
-8.8364 0.0217 2.1865
-8.7371 -1.3108 2.1865
-8.4380 -2.6129 2.1865
-7.5403 -3.6579 2.0749
-7.2728 -5.0082 2.1865
-6.4334 -6.0468 2.1865
-5.7549 -7.3393 2.3100
-4.6392 -8.2242 2.3389
-3.3457 -8.8290 2.3389
-1.9758 -9.2321 2.3389
-0.5609 -9.4243 2.3389
0.8667 -9.4012 2.3389
2.2747 -9.1632 2.3389
3.6307 -8.7159 2.3389
4.7091 -7.7487 2.2460
5.6703 -6.7667 2.1865
6.6267 -5.8350 2.1865
6.7197 -4.3125 1.9770
6.7215 -2.9951 1.8217
6.7230 -1.8448 1.7256
6.7244 -0.7865 1.6755
6.7284 0.2352 1.6658
6.7297 1.2685 1.6941
6.7311 2.3635 1.7645
6.7325 3.5828 1.8860
6.6504 4.9558 2.0507
6.2137 6.2936 2.1865
5.1943 7.1594 2.1865
4.3384 8.4095 2.3389
3.0210 8.9681 2.3389
1.6342 9.3215 2.3389
0.2100 9.4615 2.3389
-1.2191 9.3849 2.3389
-2.6202 9.0934 2.3389
-3.9611 8.5938 2.3389
-5.2112 7.8974 2.3389
-5.9285 6.5632 2.1865
-6.8495 5.5935 2.1865
-7.6135 4.4960 2.1865
-8.2030 3.2960 2.1865
-8.6047 2.0210 2.1865
-8.8095 0.7002 2.1865
0.8458 -8.9443 2.3389
2.1850 -8.7148 2.3389
3.4745 -8.2861 2.3389
4.6847 -7.6679 2.3389
5.4110 -6.4266 2.1865
6.3190 -5.5377 2.1865
7.0832 -4.5223 2.1866
6.7214 -2.9762 1.9124
6.7229 -1.8278 1.8122
6.7243 -0.7705 1.7602
6.7284 0.2510 1.7508
6.7297 1.2849 1.7812
6.7310 2.3812 1.8559
6.7325 3.6031 1.9845
6.7352 5.0437 2.1865
5.8985 6.0024 2.1865
4.9265 6.8240 2.1865
4.1093 8.0115 2.3389
2.8545 8.5401 2.3389
1.5342 8.8732 2.3389
0.1787 9.0032 2.3389
-1.1809 8.9271 2.3389
-2.5134 8.6467 2.3389
-3.7882 8.1683 2.3389
-4.9761 7.5031 2.3389
-5.7685 6.3561 2.2301
-6.5300 5.3071 2.1865
-7.2545 4.2611 2.1865
-7.8129 3.1180 2.1865
-8.1923 1.9039 2.1865
-8.3843 0.6467 2.1865
-8.3845 -0.6249 2.1865
-8.1929 -1.8818 2.1865
-7.8142 -3.0953 2.1865
-7.2569 -4.2376 2.1865
-6.5339 -5.2827 2.1865
-5.7686 -6.3239 2.2278
-4.9854 -7.4761 2.3389
-3.8006 -8.1417 2.3389
-2.5291 -8.6213 2.3389
-1.2000 -8.9038 2.3389
0.1564 -8.9828 2.3389
1.5094 -8.8566 2.3389
2.8279 -8.5281 2.3389
4.0819 -8.0047 2.3389
5.8747 -6.0062 2.1865
6.7142 -5.0523 2.1865
4.9012 -6.8227 2.1865
6.7222 -2.3955 1.8564
6.7206 -3.6167 1.9857
6.6412 -0.2629 1.7284
6.7290 0.7555 1.7605
6.7236 -1.2997 1.7811
6.7303 1.8133 1.8120
7.1025 4.5116 2.1867
6.7317 2.9622 1.9116
5.4356 6.4252 2.1865
6.3415 5.5315 2.1865
4.6933 7.6415 2.3296
3.5016 8.2955 2.3389
0.8694 8.9629 2.3389
2.2109 8.7291 2.3389
-0.4920 8.9916 2.3389
-3.1500 8.4354 2.3389
-4.3856 7.8634 2.3389
-1.8421 8.8143 2.3389
-5.5206 7.1115 2.3389
-6.1036 5.7932 2.1865
-6.9064 4.8059 2.1865
-8.0226 2.5275 2.1865
-8.3106 1.2886 2.1865
-7.5510 3.7090 2.1865
-8.4084 0.0207 2.1865
-8.0294 -2.4864 2.1865
-7.5297 -3.6527 2.1774
-8.3140 -1.2473 2.1865
-6.9208 -4.7658 2.1865
-5.5450 -7.0716 2.3389
-4.4147 -7.8262 2.3389
-6.1221 -5.7542 2.1865
-3.1838 -8.4018 2.3389
-0.5338 -8.9683 2.3389
-1.8802 -8.7854 2.3389
0.8248 -8.9463 2.3389
3.4550 -8.2942 2.3389
4.6667 -7.6788 2.3389
2.1646 -8.7199 2.3389
5.3959 -6.4392 2.1865
6.3060 -5.5525 2.1865
6.7214 -2.9950 1.9144
6.7229 -1.8448 1.8134
6.7243 -0.7865 1.7607
6.7284 0.2352 1.7506
6.7310 2.3635 1.8543
6.7325 3.5828 1.9821
6.7297 1.2685 1.7804
7.0725 -4.5389 2.1866
4.9425 6.8124 2.1865
6.7470 5.0279 2.1865
4.1280 8.0018 2.3389
1.5550 8.8696 2.3389
0.1998 9.0028 2.3389
2.8745 8.5334 2.3389
-1.1600 8.9299 2.3389
-2.4931 8.6526 2.3389
5.9125 5.9886 2.1865
-5.7676 6.3851 2.2355
-3.7691 8.1772 2.3389
-7.2445 4.2781 2.1865
-8.1879 1.9231 2.1865
-6.5175 5.3224 2.1865
-7.8056 3.1363 2.1865
-4.9586 7.5147 2.3389
-8.3828 0.6663 2.1865
0.8065 -8.5291 2.3389
2.0836 -8.3102 2.3389
3.3132 -7.9013 2.3389
4.4672 -7.3119 2.3389
5.1597 -6.1281 2.1865
6.0256 -5.2806 2.1865
6.7539 -4.3121 2.1865
6.7214 -2.9761 2.0055
6.7229 -1.8278 1.9005
6.7243 -0.7705 1.8460
6.7283 0.2510 1.8361
6.7296 1.2849 1.8680
6.7310 2.3812 1.9463
7.0732 3.7855 2.1867
6.4221 4.8092 2.1865
5.6242 5.7233 2.1865
4.7212 6.5396 2.1976
3.9182 7.6389 2.3389
2.7217 8.1429 2.3389
1.4628 8.4605 2.3389
0.1704 8.5845 2.3389
-1.1260 8.5119 2.3389
-2.3965 8.2445 2.3389
-3.6120 7.7884 2.3389
-4.7447 7.1541 2.3389
-5.7515 6.3374 2.3320
-6.2263 5.0603 2.1865
-6.9172 4.0631 2.1865
-7.4497 2.9731 2.1865
-7.8115 1.8155 2.1865
-7.9947 0.6166 2.1865
-7.9949 -0.5959 2.1865
-7.8123 -1.7944 2.1865
-7.4512 -2.9515 2.1865
-6.9198 -4.0408 2.1865
-5.7517 -6.3054 2.3294
-4.7539 -7.1290 2.3389
-6.2305 -5.0374 2.1865
-3.6241 -7.7637 2.3389
-1.1443 -8.4904 2.3389
0.1492 -8.5658 2.3389
1.4393 -8.4455 2.3389
-2.4117 -8.2210 2.3389
3.8924 -7.6330 2.3389
4.7164 -6.5654 2.2065
5.6020 -5.7273 2.1865
6.4024 -4.8176 2.1865
7.0570 -3.7977 2.1866
2.6966 -8.1322 2.3389
6.7221 -2.3954 1.9468
6.7236 -1.2997 1.8679
6.6411 -0.2629 1.8126
6.7290 0.7555 1.8463
6.7317 2.9622 2.0048
6.7303 1.8133 1.9003
6.0466 5.2743 2.1865
5.1828 6.1265 2.1865
4.4929 7.3152 2.3389
6.7719 4.3016 2.1865
3.3388 7.9096 2.3389
2.1080 8.3231 2.3389
-0.4691 8.5733 2.3389
0.8290 8.5460 2.3389
-3.0035 8.0431 2.3389
-1.7564 8.4044 2.3389
-4.1816 7.4977 2.3389
-5.8198 5.5237 2.1865
-5.2639 6.7808 2.3389
-7.2000 3.5366 2.1865
-7.6497 2.4101 2.1865
-7.9244 1.2288 2.1865
-6.5853 4.5825 2.1865
-8.0177 0.0198 2.1865
-7.9277 -1.1893 2.1865
-6.5993 -4.5444 2.1865
-5.8378 -5.4869 2.1865
-7.6564 -2.3708 2.1865
-5.2875 -6.7432 2.3389
-4.2098 -7.4628 2.3389
-3.0360 -8.0117 2.3389
-1.7929 -8.3776 2.3389
0.7865 -8.5310 2.3389
-0.5090 -8.5520 2.3389
3.2946 -7.9091 2.3389
-7.2102 -3.4977 2.1865
4.4501 -7.3223 2.3389
6.7213 -2.9950 2.0076
5.1453 -6.1402 2.1865
6.0132 -5.2946 2.1865
6.7437 -4.3279 2.1865
6.7242 -0.7865 1.8465
2.0641 -8.3150 2.3389
6.7309 2.3635 1.9447
7.0820 3.7689 2.1867
6.4333 4.7941 2.1865
5.6376 5.7101 2.1865
4.7260 6.5142 2.1928
6.7229 -1.8447 1.9017
2.7408 8.1365 2.3389
6.7296 1.2686 1.8671
0.1905 8.5841 2.3389
3.9360 7.6297 2.3389
-2.3772 8.2501 2.3389
-3.5938 7.7969 2.3389
-1.1060 8.5146 2.3389
-6.9077 4.0793 2.1865
-5.7506 6.3662 2.3377
-7.8073 1.8338 2.1865
1.4826 8.4571 2.3389
-4.7280 7.1653 2.3389
6.7283 0.2352 1.8359
-7.4427 2.9905 2.1865
-6.2145 5.0749 2.1865
-7.9932 0.6354 2.1865
0.7705 -8.1484 2.3389
1.9906 -7.9392 2.3389
3.1653 -7.5486 2.3389
4.2678 -6.9854 2.3389
4.9293 -5.8545 2.1865
5.7565 -5.0447 2.1865
6.4523 -4.1195 2.1865
7.0010 -3.0999 2.1866
6.7228 -1.8278 1.9893
6.7242 -0.7705 1.9323
6.7283 0.2510 1.9219
6.7296 1.2849 1.9553
6.7309 2.3812 2.0374
6.7567 3.6161 2.1865
6.1350 4.5942 2.1865
5.3727 5.4674 2.1865
4.7006 6.5111 2.2904
3.7429 7.2973 2.3389
2.6000 7.7787 2.3389
1.3974 8.0822 2.3389
0.1628 8.2006 2.3389
-1.0756 8.1313 2.3389
-2.2893 7.8759 2.3389
-3.4505 7.4402 2.3389
-5.5107 6.0721 2.3389
-4.5326 6.8343 2.3389
-5.9480 4.8342 2.1865
-7.1167 2.8402 2.1865
-6.6080 3.8815 2.1865
-7.4625 1.7343 2.1865
-7.6377 -0.5692 2.1865
-7.6374 0.5891 2.1865
-7.1184 -2.8196 2.1865
-7.4633 -1.7142 2.1865
-5.9523 -4.8124 2.1865
-6.6108 -3.8603 2.1865
-4.5417 -6.8107 2.3389
-3.4624 -7.4171 2.3389
-2.3041 -7.8540 2.3389
-5.5174 -6.0485 2.3389
-1.0932 -8.1114 2.3389
1.3750 -8.0685 2.3389
0.1425 -8.1834 2.3389
2.5762 -7.7691 2.3389
3.7186 -7.2922 2.3389
4.6989 -6.5410 2.3011
6.1165 -4.6025 2.1865
5.3518 -5.4715 2.1865
6.7415 -3.6279 2.1865
6.7221 -2.3954 2.0378
6.7235 -1.2996 1.9552
6.6411 -0.2629 1.8973
6.7289 0.7555 1.9327
7.0141 3.0866 2.1866
6.4692 4.1094 2.1865
6.7302 1.8133 1.9892
5.7763 5.0385 2.1865
4.2920 6.9881 2.3389
3.1895 7.5559 2.3389
2.0138 7.9509 2.3389
4.9511 5.8526 2.1865
-0.4481 8.1899 2.3389
-1.6779 8.0285 2.3389
-2.8692 7.6834 2.3389
0.7919 8.1638 2.3389
-3.9946 7.1624 2.3389
-5.7624 5.4694 2.2663
-5.0285 6.4776 2.3389
-6.8781 3.3785 2.1865
-7.3078 2.3024 2.1865
-6.2909 4.3777 2.1865
-7.6595 0.0189 2.1865
-7.5703 1.1739 2.1865
-7.5735 -1.1362 2.1865
-6.8882 -3.3415 2.1865
-7.3144 -2.2649 2.1865
-5.7633 -5.4169 2.2595
-4.0218 -7.1296 2.3389
-6.3047 -4.3415 2.1865
-2.9005 -7.6541 2.3389
-5.0515 -6.4421 2.3389
-1.7129 -8.0036 2.3389
-0.4863 -8.1702 2.3389
3.1476 -7.5560 2.3389
4.2514 -6.9954 2.3389
4.9156 -5.8660 2.1865
5.7447 -5.0582 2.1865
0.7514 -8.1501 2.3389
6.4426 -4.1346 2.1865
6.9936 -3.1163 2.1866
6.7228 -1.8447 1.9906
1.9720 -7.9438 2.3389
6.7295 1.2686 1.9545
6.7282 0.2352 1.9218
6.7651 3.6003 2.1865
6.7309 2.3635 2.0357
6.1457 4.5798 2.1865
5.3855 5.4548 2.1865
3.7600 7.2885 2.3389
6.7242 -0.7864 1.9328
2.6182 7.7726 2.3389
1.4163 8.0789 2.3389
4.7018 6.4808 2.2837
-1.0566 8.1338 2.3389
0.1820 8.2002 2.3389
-2.2708 7.8812 2.3389
-5.9366 4.8481 2.1865
-3.4330 7.4483 2.3389
-4.5165 6.8449 2.3389
-5.4965 6.0850 2.3389
-7.1100 2.8569 2.1865
-7.4584 1.7518 2.1865
-6.5989 3.8969 2.1865
-7.6360 0.6070 2.1865
0.7374 -7.7979 2.3389
1.9050 -7.5977 2.3389
3.0291 -7.2239 2.3389
4.0842 -6.6850 2.3389
4.7277 -5.6146 2.1913
5.5089 -4.8277 2.1865
6.1747 -3.9422 2.1865
6.6995 -2.9664 2.1865
7.0716 -1.9226 2.1866
6.7242 -0.7704 2.0192
6.7282 0.2511 2.0084
6.7295 1.2849 2.0433
6.9126 2.4455 2.1866
6.4657 3.4604 2.1865
5.8707 4.3964 2.1865
5.1413 5.2320 2.1865
4.5933 6.3625 2.3389
3.5817 6.9830 2.3389
2.4880 7.4436 2.3389
1.3372 7.7339 2.3389
0.1557 7.8473 2.3389
-1.0293 7.7810 2.3389
-2.1907 7.5365 2.3389
-3.3018 7.1197 2.3389
-4.3373 6.5399 2.3389
-5.2733 5.8106 2.3389
-5.7707 4.6901 2.2168
-6.3234 3.7143 2.1865
-6.8102 2.7180 2.1865
-7.1412 1.6597 2.1865
-7.3086 0.5638 2.1865
-7.3090 -0.5447 2.1865
-7.1421 -1.6404 2.1865
-6.8121 -2.6983 2.1865
-6.3264 -3.6942 2.1865
-5.7708 -4.6656 2.2151
-5.2800 -5.7883 2.3389
-4.3463 -6.5177 2.3389
-3.3135 -7.0981 2.3389
-2.2050 -7.5162 2.3389
-1.0462 -7.7625 2.3389
0.1364 -7.8315 2.3389
1.3159 -7.7214 2.3389
2.4654 -7.4350 2.3389
3.5587 -6.9786 2.3389
4.5708 -6.3626 2.3389
5.1216 -5.2361 2.1865
5.8534 -4.4044 2.1865
6.4515 -3.4718 2.1865
6.9023 -2.4596 2.1865
6.7235 -1.2996 2.0431
6.6410 -0.2629 1.9827
6.7288 0.7555 2.0196
7.0798 1.9075 2.1867
6.7118 2.9536 2.1865
6.1906 3.9324 2.1865
5.5275 4.8215 2.1865
4.7378 5.6005 2.1865
4.1071 6.6871 2.3389
3.0520 7.2304 2.3389
1.9270 7.6083 2.3389
0.7578 7.8121 2.3389
-0.4288 7.8371 2.3389
-1.6056 7.6826 2.3389
-2.7455 7.3524 2.3389
-3.8225 6.8539 2.3389
-4.8119 6.1986 2.3389
-5.6909 5.4016 2.3389
-6.0200 4.1892 2.1865
-6.5819 3.2330 2.1865
-6.9932 2.2033 2.1865
-7.2444 1.1234 2.1865
-7.3298 0.0181 2.1865
-7.2476 -1.0872 2.1865
-6.9997 -2.1674 2.1865
-6.5918 -3.1977 2.1865
-6.0334 -4.1547 2.1865
-5.7092 -5.3660 2.3389
-4.8342 -6.1650 2.3389
-3.8489 -6.8230 2.3389
-2.7757 -7.3249 2.3389
-1.6392 -7.6594 2.3389
-0.4654 -7.8188 2.3389
0.7191 -7.7996 2.3389
1.8872 -7.6022 2.3389
3.0122 -7.2310 2.3389
4.0685 -6.6945 2.3389
4.7235 -5.6365 2.1955
5.4975 -4.8406 2.1865
6.1654 -3.9567 2.1865
6.6925 -2.9821 2.1865
7.0671 -1.9391 2.1866
6.7241 -0.7864 2.0197
6.7282 0.2353 2.0082
6.7295 1.2686 2.0424
6.9183 2.4294 2.1866
6.4738 3.4453 2.1865
5.8810 4.3826 2.1865
5.1535 5.2199 2.1865
4.6082 6.3517 2.3389
3.5980 6.9745 2.3389
2.5054 7.4378 2.3389
1.3553 7.7308 2.3389
0.1741 7.8469 2.3389
-1.0110 7.7833 2.3389
-2.1730 7.5417 2.3389
-3.2851 7.1274 2.3389
-4.3220 6.5500 2.3389
-5.2597 5.8229 2.3389
-5.7700 4.7120 2.2208
-6.3147 3.7291 2.1865
-6.8039 2.7339 2.1865
-7.1373 1.6764 2.1865
-7.3073 0.5809 2.1865
0.7068 -7.4742 2.3389
1.8259 -7.2823 2.3389
2.9034 -6.9240 2.3389
3.9146 -6.4074 2.3389
4.7038 -5.5865 2.2747
5.2801 -4.6272 2.1865
5.9182 -3.7785 2.1865
6.4212 -2.8431 2.1865
6.7775 -1.8426 2.1865
6.9791 -0.7996 2.1866
7.0210 0.2620 2.1866
6.9020 1.3179 2.1865
6.6253 2.3439 2.1865
6.1969 3.3166 2.1865
5.6267 4.2136 2.1865
4.9275 5.0145 2.1865
4.4023 6.0980 2.3389
3.4328 6.6926 2.3389
2.3845 7.1341 2.3389
1.2816 7.4124 2.3389
0.1493 7.5209 2.3389
-0.9865 7.4574 2.3389
-2.0996 7.2232 2.3389
-3.1645 6.8236 2.3389
-4.1569 6.2680 2.3389
-5.0541 5.5690 2.3389
-5.7556 4.6779 2.3070
-6.0606 3.5599 2.1865
-6.5272 2.6050 2.1865
-6.8444 1.5908 2.1865
-7.0050 0.5404 2.1865
-7.0053 -0.5220 2.1865
-6.8454 -1.5722 2.1865
-6.5291 -2.5862 2.1865
-6.0636 -3.5407 2.1865
-5.7558 -4.6535 2.3051
-4.1659 -6.2471 2.3389
-5.0608 -5.5479 2.3389
-3.1759 -6.8034 2.3389
-1.0028 -7.4403 2.3389
-2.1135 -7.2041 2.3389
1.2613 -7.4009 2.3389
2.3631 -7.1263 2.3389
3.4109 -6.6888 2.3389
0.1307 -7.5063 2.3389
4.3810 -6.0984 2.3389
5.6103 -4.2215 2.1865
6.1835 -3.3276 2.1865
6.6155 -2.3574 2.1865
4.9089 -5.0187 2.1865
6.8964 -1.3330 2.1865
6.9824 0.7840 2.1866
6.6410 -0.2628 2.0686
6.7850 1.8281 2.1865
5.9332 3.7689 2.1865
5.2977 4.6211 2.1865
4.7052 5.5620 2.2657
3.9363 6.4091 2.3389
2.9251 6.9298 2.3389
0.7263 7.4872 2.3389
-0.4110 7.5112 2.3389
-1.5388 7.3632 2.3389
-2.6314 7.0467 2.3389
-3.6636 6.5689 2.3389
1.8469 7.2919 2.3389
-4.6118 5.9409 2.3389
-5.7753 4.0189 2.1887
-6.3084 3.0987 2.1865
-6.7025 2.1117 2.1865
6.4328 2.8308 2.1865
-5.4543 5.1770 2.3389
-6.9433 1.0767 2.1865
-6.9465 -1.0420 2.1865
-7.0252 0.0174 2.1865
-6.3180 -3.0649 2.1865
-5.7829 -3.9821 2.1865
-4.6335 -5.9090 2.3389
-3.6891 -6.5397 2.3389
-5.4722 -5.1432 2.3389
-6.7089 -2.0773 2.1865
-2.6605 -7.0207 2.3389
0.6892 -7.4758 2.3389
-0.4461 -7.4942 2.3389
2.8871 -6.9307 2.3389
-1.5712 -7.3414 2.3389
3.8996 -6.4165 2.3389
5.2692 -4.6395 2.1865
1.8088 -7.2866 2.3389
5.9094 -3.7923 2.1865
6.7731 -1.8585 2.1865
6.9772 -0.8160 2.1866
6.4145 -2.8582 2.1865
6.9050 1.3017 2.1865
6.2047 3.3021 2.1865
7.0216 0.2456 2.1866
5.6365 4.2004 2.1865
4.9392 5.0029 2.1865
4.7027 -5.6118 2.2805
3.4484 6.6845 2.3389
1.2989 7.4093 2.3389
0.1669 7.5206 2.3389
2.4012 7.1285 2.3389
4.4166 6.0877 2.3389
-0.9690 7.4597 2.3389
-3.1485 6.8310 2.3389
-2.0826 7.2280 2.3389
-5.0410 5.5808 2.3389
-6.5211 2.6203 2.1865
-5.7550 4.6998 2.3111
-6.8407 1.6068 2.1865
6.6307 2.3284 2.1865
-4.1422 6.2777 2.3389
-7.0037 0.5568 2.1865
-6.0522 3.5742 2.1865
0.6784 -7.1741 2.3389
1.7526 -6.9899 2.3389
2.7868 -6.6460 2.3389
3.7575 -6.1501 2.3389
4.6424 -5.5136 2.3389
5.0681 -4.4414 2.1865
5.6806 -3.6267 2.1865
6.1633 -2.7289 2.1865
6.5053 -1.7685 2.1865
6.6985 -0.7674 2.1865
6.7386 0.2515 2.1865
6.6246 1.2650 2.1865
6.3590 2.2497 2.1865
5.9479 3.1833 2.1865
5.4005 4.0443 2.1865
4.7314 4.8149 2.1874
4.2253 5.8529 2.3389
3.2947 6.4236 2.3389
2.2886 6.8473 2.3389
1.2301 7.1143 2.3389
0.1433 7.2185 2.3389
-0.9468 7.1576 2.3389
-2.0151 6.9327 2.3389
-3.0373 6.5493 2.3389
-3.9898 6.0160 2.3389
-4.8509 5.3451 2.3389
-5.6008 4.5521 2.3389
-5.8170 3.4170 2.1865
-6.2649 2.5003 2.1865
-6.5694 1.5269 2.1865
-6.7235 0.5187 2.1865
-6.7239 -0.5011 2.1865
-6.5705 -1.5090 2.1865
-5.8201 -3.3986 2.1865
-6.2669 -2.4823 2.1865
-4.8576 -5.3251 2.3389
-3.9986 -5.9963 2.3389
-3.0484 -6.5303 2.3389
-2.0286 -6.9149 2.3389
-0.9625 -7.1416 2.3389
0.1255 -7.2050 2.3389
1.2107 -7.1038 2.3389
2.2682 -6.8402 2.3389
3.2740 -6.4203 2.3389
-5.6057 -4.5321 2.3389
4.2051 -5.8536 2.3389
5.3850 -4.0520 2.1865
5.9352 -3.1939 2.1865
4.7259 -4.8315 2.1931
6.3498 -2.2627 2.1865
6.7376 -0.2667 2.1865
6.7017 0.7525 2.1865
