ply
format ascii 1.0
element vertex 2090
property float32 x
property float32 y
property float32 z
end_header
6.7297 0.6739 -0.2004
6.7310 1.7239 -0.2063
6.7325 2.8595 -0.2175
6.7342 4.1525 -0.2357
6.7411 5.7181 -0.2638
6.7438 7.7450 -0.3068
6.6632 10.4995 -0.3720
16.9904 38.6087 -1.2629
-7.4332 13.9039 -0.4718
-21.3159 15.4468 -0.7848
-21.3306 11.0012 -0.7143
-21.3284 7.1925 -0.6687
-21.3328 3.7570 -0.6423
-21.3332 0.4996 -0.6316
-21.3336 -2.7350 -0.6354
-21.3378 -6.0994 -0.6543
-7.4883 -3.4283 -0.2424
-21.3386 -13.9883 -0.7496
-21.3509 -19.1525 -0.8414
-21.2905 -25.8644 -0.9814
-8.0131 -19.6688 -0.6209
21.1601 -37.0748 -1.2491
12.2049 -15.4197 -0.5761
6.7201 -6.2646 -0.2695
6.7201 -4.5917 -0.2391
6.7219 -3.2346 -0.2195
6.7234 -2.0620 -0.2073
6.7248 -0.9934 -0.2008
6.6423 0.0282 -0.1966
6.7302 1.0528 -0.2020
6.7316 2.1273 -0.2097
6.7331 3.3108 -0.2233
6.7349 4.6864 -0.2446
6.7420 6.3931 -0.2774
12.3417 15.8682 -0.6009
16.8690 30.1496 -1.0338
-7.7373 31.0141 -0.9577
-7.9579 13.0874 -0.4582
-21.3155 18.7947 -0.8480
-21.3243 13.7199 -0.7555
-21.3300 9.5458 -0.6951
-21.3312 5.9008 -0.6571
-21.3347 2.5500 -0.6367
-21.3359 -0.6820 -0.6314
-21.3340 -3.9455 -0.6404
-7.3398 -2.5452 -0.2289
-7.1420 -3.7611 -0.2374
-21.3412 -15.7449 -0.7787
-21.3514 -21.4004 -0.8863
-7.2389 -21.0307 -0.6501
-7.0474 -38.5999 -1.1463
-21.3332 -1.5415 -0.3790
-21.3379 -4.8399 -0.3865
-7.5967 -2.9812 -0.1437
-21.3354 -12.3547 -0.4329
-21.3461 -17.1141 -0.4791
-21.3478 -23.1892 -0.5506
6.7025 -13.4178 -0.2611
6.7158 -9.5238 -0.2032
6.7191 -6.9976 -0.1696
6.6378 -5.0963 -0.1466
6.7212 -3.7056 -0.1348
6.7228 -2.4765 -0.1262
6.7242 -1.3773 -0.1213
6.6445 -0.3399 -0.1180
6.7310 1.7239 -0.1240
6.7325 2.8595 -0.1309
6.7296 0.6739 -0.1203
6.7411 5.7181 -0.1591
6.7342 4.1525 -0.1420
6.7437 7.7450 -0.1853
6.6631 10.4994 -0.2248
6.7532 15.3459 -0.3035
-7.3408 13.7311 -0.2816
-21.3164 15.4473 -0.4731
-21.3306 11.0013 -0.4302
-21.3285 7.1926 -0.4022
-21.3334 0.4996 -0.3789
-21.3337 -2.7349 -0.3807
-21.3377 -6.0992 -0.3916
-21.3391 -13.9885 -0.4476
-7.4492 -3.4104 -0.1441
-21.3327 3.7571 -0.3859
-21.2905 -25.8642 -0.5848
-21.3510 -19.1525 -0.5018
-8.2539 -20.2598 -0.3806
6.7046 -11.7471 -0.2356
6.7172 -8.4864 -0.1889
6.7201 -6.2645 -0.1607
6.7200 -4.5916 -0.1427
6.7218 -3.2345 -0.1312
6.7233 -2.0619 -0.1241
6.7301 1.0528 -0.1213
6.7247 -0.9934 -0.1203
6.7315 2.1273 -0.1261
6.6422 0.0283 -0.1179
6.7331 3.3109 -0.1345
6.7449 8.6723 -0.1983
6.7349 4.6864 -0.1474
6.7419 6.3931 -0.1674
6.7489 12.0622 -0.2500
-7.9047 13.0000 -0.2750
-21.3242 13.7200 -0.4553
-21.3156 18.7948 -0.5116
-21.3312 5.9009 -0.3951
-21.3346 2.5501 -0.3823
-21.3295 9.5457 -0.4184
-21.3361 -0.6820 -0.3786
-7.7708 31.1488 -0.5817
-21.3341 -3.9455 -0.3836
-21.3364 -11.2359 -0.4237
-21.3511 -21.3999 -0.5284
-21.3343 -7.3979 -0.3980
-21.3417 -15.7452 -0.4647
-7.2000 -20.9176 -0.3847
6.7006 -14.8811 -0.2840
-21.3333 -1.5414 -0.1259
-21.3377 -4.8398 -0.1276
-7.4104 -2.9081 -0.0460
-21.3357 -12.3548 -0.1411
-21.3463 -17.1141 -0.1553
-21.3482 -23.1895 -0.1776
6.6726 -40.9746 -0.2300
6.6828 -20.6950 -0.1208
6.7024 -13.4176 -0.0836
6.7157 -9.5236 -0.0653
6.7190 -6.9975 -0.0547
6.6377 -5.0962 -0.0476
6.7211 -3.7055 -0.0440
6.7227 -2.4764 -0.0415
6.7242 -1.3772 -0.0401
6.6445 -0.3399 -0.0392
6.7309 1.7239 -0.0418
6.7296 0.6739 -0.0403
6.7341 4.1525 -0.0484
6.7324 2.8595 -0.0444
6.7410 5.7181 -0.0545
6.7436 7.7450 -0.0637
6.6630 10.4993 -0.0776
6.7531 15.3457 -0.1050
6.7557 25.0281 -0.1629
-7.5313 14.0876 -0.0999
-21.3169 15.4478 -0.1616
-21.3306 11.0014 -0.1461
-21.3326 3.7572 -0.1295
-21.3335 0.4997 -0.1264
-21.3338 -2.7348 -0.1262
-21.3375 -6.0991 -0.1289
-21.3286 7.1927 -0.1359
-7.4105 -3.3926 -0.0469
-21.3396 -13.9888 -0.1456
-21.3512 -19.1525 -0.1624
-21.2904 -25.8640 -0.1883
-8.1970 -20.1201 -0.1209
6.6911 -30.3780 -0.1725
6.7124 -17.4240 -0.1039
6.7045 -11.7469 -0.0756
6.7200 -6.2644 -0.0520
6.7171 -8.4862 -0.0608
6.7200 -4.5915 -0.0464
6.7217 -3.2345 -0.0429
6.7233 -2.0619 -0.0408
6.7247 -0.9933 -0.0399
6.7301 1.0528 -0.0407
6.7315 2.1273 -0.0426
6.7330 3.3109 -0.0457
6.7348 4.6864 -0.0503
6.7419 6.3931 -0.0574
6.7448 8.6722 -0.0683
6.7488 12.0621 -0.0864
6.7588 18.0004 -0.1206
6.6422 0.0283 -0.0393
6.6920 31.6648 -0.2035
-7.6463 30.6496 -0.1985
-8.4739 13.9360 -0.1018
-21.3156 18.7950 -0.1752
-21.3242 13.7201 -0.1552
-21.3291 9.5456 -0.1418
-21.3313 5.9010 -0.1331
-21.3345 2.5502 -0.1280
-21.3362 -0.6819 -0.1260
-21.3342 -3.9454 -0.1268
-21.3347 -7.3980 -0.1307
-21.3422 -15.7454 -0.1509
-21.3507 -21.3995 -0.1707
-21.3367 -11.2360 -0.1383
6.7059 -24.0273 -0.1385
6.7005 -14.8807 -0.0909
-21.3334 -1.5413 0.1272
-21.3376 -4.8397 0.1313
-7.2330 -2.8384 0.0471
-21.3361 -12.3548 0.1506
-21.3464 -17.1141 0.1684
-21.3485 -23.1897 0.1954
6.6723 -40.9725 0.2612
6.6828 -20.6950 0.1365
6.7023 -13.4173 0.0938
6.7157 -9.5235 0.0726
6.7190 -6.9973 0.0600
6.6376 -5.0961 0.0514
6.7211 -3.7054 0.0468
6.7227 -2.4764 0.0433
6.7241 -1.3772 0.0411
6.7295 0.6739 0.0397
6.7309 1.7239 0.0404
6.7324 2.8595 0.0422
6.7340 4.1525 0.0452
6.7409 5.7181 0.0501
6.7436 7.7449 0.0578
6.6629 10.4992 0.0696
6.6444 -0.3398 0.0395
6.7530 15.3455 0.0933
6.7555 25.0275 0.1438
-7.4824 13.9962 0.0886
-21.3305 11.0015 0.1378
-21.3286 7.1928 0.1305
-21.3325 3.7573 0.1268
-21.3337 0.4999 0.1261
-21.3339 -2.7348 0.1283
-7.3723 -3.3751 0.0493
-21.3374 -6.0989 0.1337
-21.3401 -13.9890 0.1563
-21.3513 -19.1525 0.1770
-21.3174 15.4482 0.1499
-21.2904 -25.8638 0.2081
6.6909 -30.3768 0.1956
6.7170 -8.4861 0.0672
6.7123 -17.4236 0.1171
6.7199 -6.2643 0.0567
6.7199 -4.5915 0.0499
6.7044 -11.7466 0.0845
6.7232 -2.0618 0.0424
6.7246 -0.9933 0.0406
6.7300 1.0529 0.0399
6.7314 2.1274 0.0409
6.7330 3.3109 0.0431
6.6421 0.0283 0.0393
6.7347 4.6864 0.0467
6.7418 6.3930 0.0525
6.7217 -3.2344 0.0453
6.7586 18.0001 0.1069
6.7448 8.6721 0.0617
6.6917 31.6638 0.1794
6.7487 12.0620 0.0772
-7.8152 31.3268 0.1791
-25.3181 41.6381 0.2725
-21.3241 13.7201 0.1448
-21.3286 9.5455 0.1347
-21.3314 5.9012 0.1287
-21.3344 2.5502 0.1262
-21.3343 -3.9453 0.1299
-21.3156 18.7951 0.1610
-21.3364 -0.6818 0.1266
-21.3427 -15.7457 0.1630
-21.3370 -11.2361 0.1470
-21.3504 -21.3990 0.1870
-21.3351 -7.3980 0.1365
6.7004 -14.8804 0.1022
6.7057 -24.0265 0.1567
-21.3335 -1.5412 0.3803
-21.3374 -4.8395 0.3903
-21.3362 -8.3728 0.4101
-21.3364 -12.3549 0.4424
-21.3465 -17.1141 0.4922
-21.3489 -23.1900 0.5684
6.6720 -40.9704 0.7524
6.6829 -20.6950 0.3939
6.7022 -13.4170 0.2713
6.7156 -9.5233 0.2105
6.7189 -6.9972 0.1748
6.6376 -5.0960 0.1505
6.7210 -3.7054 0.1376
6.7226 -2.4763 0.1281
6.7241 -1.3771 0.1223
6.6444 -0.3398 0.1182
6.7295 0.6740 0.1198
6.7308 1.7239 0.1227
6.7323 2.8595 0.1287
6.7340 4.1525 0.1388
6.7409 5.7181 0.1547
6.7435 7.7449 0.1793
6.7528 15.3453 0.2917
6.6628 10.4991 0.2167
6.7553 25.0269 0.4506
-22.5339 42.1508 0.8324
-34.6786 34.1703 0.8513
-21.3305 11.0016 0.4219
-21.3179 15.4487 0.4615
-21.3324 3.7574 0.3831
-21.3338 0.4999 0.3787
-21.3339 -2.7347 0.3829
-21.3372 -6.0988 0.3963
-21.3287 7.1929 0.3969
-21.3406 -13.9892 0.4583
-21.3515 -19.1525 0.5165
-21.2904 -25.8636 0.6045
-7.3344 -3.3577 0.1445
6.6906 -30.3756 0.5637
6.7121 -17.4231 0.3381
6.7169 -8.4859 0.1953
6.7043 -11.7464 0.2445
6.7198 -6.2642 0.1654
6.7216 -3.2343 0.1336
6.7199 -4.5914 0.1462
6.7246 -0.9933 0.1210
6.7232 -2.0618 0.1256
6.7300 1.0529 0.1205
6.6421 0.0284 0.1179
6.7329 3.3109 0.1319
6.7314 2.1274 0.1245
6.7347 4.6864 0.1438
6.7417 6.3930 0.1625
6.7447 8.6721 0.1917
6.7585 17.9998 0.3344
6.6915 31.6628 0.5624
6.7486 12.0619 0.2407
-25.3180 41.6382 0.8492
-21.3241 13.7202 0.4449
-21.3282 9.5454 0.4112
-21.3314 5.9013 0.3907
-21.3365 -0.6817 0.3792
-21.3343 2.5503 0.3805
-21.3156 18.7952 0.4973
-21.3355 -7.3981 0.4037
-21.3374 -11.2361 0.4324
-21.3344 -3.9452 0.3867
-21.3501 -21.3986 0.5448
-21.3433 -15.7460 0.4768
6.7055 -24.0257 0.4519
6.7002 -14.8800 0.2953
-21.3336 -1.5411 0.6336
-21.3373 -4.8394 0.6493
-21.3366 -8.3728 0.6815
-21.3367 -12.3550 0.7343
-21.3467 -17.1141 0.8162
-21.3492 -23.1902 0.9416
6.6717 -40.9683 1.2438
6.6829 -20.6950 0.6514
6.7020 -13.4167 0.4489
6.7155 -9.5231 0.3484
6.7188 -6.9971 0.2897
6.6375 -5.0960 0.2495
6.7210 -3.7053 0.2285
6.7226 -2.4763 0.2129
6.7240 -1.3771 0.2036
6.6443 -0.3398 0.1970
6.7294 0.6740 0.1999
6.7308 1.7240 0.2049
6.7323 2.8595 0.2153
6.7339 4.1525 0.2325
6.7408 5.7180 0.2594
6.7434 7.7448 0.3009
6.6627 10.4991 0.3639
6.7527 15.3451 0.4902
6.7551 25.0262 0.7575
-22.5338 42.1508 1.3983
-29.4909 39.4559 1.4426
-30.8629 30.4107 1.2706
-21.3184 15.4492 0.7732
-21.3304 11.0016 0.7060
-21.3287 7.1931 0.6634
-21.3323 3.7574 0.6396
-21.3340 0.5000 0.6313
-21.3340 -2.7346 0.6375
-21.3371 -6.0987 0.6590
-7.2969 -3.3405 0.2388
-21.3411 -13.9894 0.7605
-21.3516 -19.1525 0.8561
-21.2903 -25.8635 1.0012
6.6904 -30.3744 0.9319
6.7120 -17.4227 0.5591
6.7042 -11.7462 0.4047
6.7169 -8.4858 0.3235
6.7198 -6.2641 0.2742
6.7198 -4.5913 0.2426
6.7216 -3.2343 0.2219
6.7231 -2.0617 0.2089
6.7245 -0.9932 0.2015
6.6420 0.0284 0.1965
6.7299 1.0529 0.2011
6.7313 2.1274 0.2081
6.7328 3.3109 0.2207
6.7346 4.6864 0.2410
6.7417 6.3930 0.2725
6.7446 8.6720 0.3218
6.7485 12.0617 0.4044
6.7584 17.9994 0.5620
6.6912 31.6617 0.9455
-25.3178 41.6382 1.4262
-29.7514 35.5214 1.3576
-21.3156 18.7954 0.8338
-21.3240 13.7203 0.7451
-21.3278 9.5454 0.6878
-21.3315 5.9014 0.6527
-21.3342 2.5504 0.6349
-21.3367 -0.6816 0.6320
-21.3345 -3.9451 0.6435
-21.3359 -7.3981 0.6711
-21.3377 -11.2362 0.7179
-21.3438 -15.7462 0.7909
-21.3498 -21.3981 0.9026
6.7053 -24.0249 0.7472
6.7001 -14.8797 0.4885
-21.3337 -1.5410 0.8870
-21.3372 -4.8393 0.9085
-21.3370 -8.3729 0.9531
-21.3371 -12.3551 1.0265
-21.3468 -17.1140 1.1403
-21.3496 -23.1905 1.3151
-26.6966 -39.6000 1.9942
6.6713 -40.9662 1.7355
6.6829 -20.6950 0.9090
6.7019 -13.4164 0.6266
6.7154 -9.5229 0.4865
6.7187 -6.9970 0.4046
6.6375 -5.0959 0.3487
6.7209 -3.7052 0.3194
6.7225 -2.4762 0.2978
6.7239 -1.3771 0.2849
6.6443 -0.3397 0.2758
6.7294 0.6740 0.2800
6.7307 1.7240 0.2872
6.7322 2.8595 0.3020
6.7339 4.1525 0.3262
6.7407 5.7180 0.3641
6.7433 7.7448 0.4226
6.6626 10.4990 0.5112
6.7549 25.0257 1.0646
6.7526 15.3449 0.6888
-25.8156 34.5389 1.7737
-22.5337 42.1508 1.9646
-27.7620 27.3554 1.6047
-21.3189 15.4497 1.0852
-21.3288 7.1932 0.9300
-21.3322 3.7575 0.8962
-21.3341 0.5001 0.8841
-21.3304 11.0017 0.9904
-21.3341 -2.7345 0.8924
-21.3370 -6.0985 0.9219
-21.3417 -13.9896 1.0628
-21.3381 -9.7684 0.9762
-21.2903 -25.8633 1.3980
-21.3518 -19.1525 1.1959
6.7119 -17.4222 0.7803
6.6902 -30.3732 1.3004
6.7041 -11.7459 0.5649
6.7197 -6.2640 0.3830
6.7168 -8.4856 0.4517
6.7215 -3.2342 0.3103
6.7197 -4.5912 0.3390
6.7244 -0.9932 0.2820
6.6420 0.0284 0.2752
6.7299 1.0529 0.2818
6.7313 2.1274 0.2917
6.7328 3.3109 0.3096
6.7346 4.6864 0.3382
6.7416 6.3930 0.3825
6.7445 8.6720 0.4519
6.7484 12.0616 0.5681
6.7582 17.9992 0.7898
6.7231 -2.0617 0.2922
6.6910 31.6607 1.3288
-24.0581 39.5666 1.9038
-21.3156 18.7955 1.1705
-21.3240 13.7204 1.0455
-21.3273 9.5453 0.9646
-21.3315 5.9015 0.9149
-21.3341 2.5505 0.8894
-21.3368 -0.6815 0.8849
-21.3346 -3.9451 0.9006
-26.6392 31.8058 1.7071
-21.3380 -11.2363 1.0036
-21.3443 -15.7465 1.1051
-21.3494 -21.3976 1.2608
-21.3363 -7.3981 0.9386
-27.4308 -37.3586 1.9349
6.7051 -24.0242 1.0427
6.7000 -14.8793 0.6819
-21.3338 -1.5410 1.1406
-21.3370 -4.8392 1.1680
-21.3374 -8.3729 1.2249
-21.3374 -12.3552 1.3189
-21.3469 -17.1140 1.4648
-21.3500 -23.1907 1.6889
-23.2949 -34.5539 2.2343
-18.4860 -39.0383 2.3171
-12.4783 -41.6134 2.3314
-5.7715 -40.8342 2.2136
0.4580 -43.5711 2.3390
6.5480 -40.2087 2.1866
6.6830 -20.6950 1.1670
6.7018 -13.4161 0.8044
6.7153 -9.5228 0.6247
6.7187 -6.9969 0.5197
6.6374 -5.0958 0.4479
6.7208 -3.7052 0.4104
6.7239 -1.3770 0.3663
6.6442 -0.3397 0.3547
6.7225 -2.4762 0.3828
6.7307 1.7240 0.3696
6.7321 2.8595 0.3887
6.7338 4.1525 0.4200
6.7407 5.7180 0.4689
6.7433 7.7447 0.5443
6.6625 10.4989 0.6587
6.7293 0.6740 0.3602
6.7525 15.3446 0.8876
4.7145 41.6473 2.2180
-1.6878 44.1698 2.3390
6.7547 25.0250 1.3719
-7.7668 40.5799 2.1866
-14.7356 41.6538 2.3390
-7.4743 13.9812 0.8396
-22.8784 30.6095 2.0251
-23.9178 23.5677 1.7807
-21.3194 15.4502 1.3974
-21.3303 11.0018 1.2750
-21.3288 7.1933 1.1970
-21.3321 3.7576 1.1531
-21.3342 -2.7344 1.1475
-21.3368 -6.0984 1.1851
-21.3385 -9.7685 1.2546
-21.3422 -13.9898 1.3655
-21.3343 0.5002 1.1372
-21.3519 -19.1525 1.5361
-21.9087 -36.7319 2.2936
-21.2903 -25.8631 1.7953
-16.3308 -40.0840 2.3222
-10.1788 -42.3342 2.3368
-3.7011 -43.4169 2.3390
2.8687 -43.4796 2.3390
6.6899 -30.3720 1.6691
6.7040 -11.7457 0.7253
6.7167 -8.4855 0.5800
6.7117 -17.4218 1.0017
6.7197 -4.5912 0.4355
6.7196 -6.2639 0.4920
6.7215 -3.2342 0.3988
6.7230 -2.0616 0.3756
6.6419 0.0285 0.3540
6.7298 1.0530 0.3626
6.7244 -0.9931 0.3626
6.7327 3.3109 0.3986
6.7312 2.1274 0.3754
6.7345 4.6864 0.4355
6.7444 8.6719 0.5822
6.7415 6.3929 0.4927
6.7581 17.9989 1.0178
6.7483 12.0615 0.7320
2.5337 44.1292 2.3390
6.6908 31.6598 1.7125
-4.1295 44.0074 2.3390
-16.4954 39.5219 2.2675
-23.7024 28.2995 1.9567
-21.0219 34.5734 2.1434
-21.3156 18.7956 1.5075
-21.3239 13.7205 1.3463
-21.3316 5.9016 1.1774
-21.3269 9.5452 1.2417
-21.3340 2.5506 1.1442
-10.6967 42.8781 2.3390
-21.3347 -3.9450 1.1579
-21.3367 -7.3982 1.2065
-21.3370 -0.6814 1.1381
-21.3384 -11.2363 1.2897
-21.3448 -15.7468 1.4198
-24.2234 -32.9902 2.1940
-21.3491 -21.3972 1.6192
-20.0103 -38.2092 2.3135
-14.1176 -41.0137 2.3275
-7.3172 -40.0762 2.1866
4.9273 -40.4376 2.1866
6.6999 -14.8790 0.8754
6.7049 -24.0234 1.3385
-1.2926 -43.5544 2.3390
-21.3339 -1.5409 1.3946
-21.3369 -4.8390 1.4278
-21.3379 -8.3730 1.4971
-21.3377 -12.3553 1.6117
-21.3471 -17.1140 1.7897
-21.3503 -23.1910 2.0633
-19.9260 -29.5567 2.3345
-15.1872 -32.0718 2.3250
-10.2406 -34.1507 2.3367
-4.9937 -35.3310 2.3390
0.3750 -35.6783 2.3390
5.3617 -32.9244 2.1866
6.6830 -20.6950 1.4252
6.7017 -13.4158 0.9825
6.7152 -9.5226 0.7630
6.7186 -6.9967 0.6348
6.6373 -5.0957 0.5473
6.7208 -3.7051 0.5016
6.7224 -2.4761 0.4678
6.7238 -1.3770 0.4478
6.6442 -0.3397 0.4337
6.7293 0.6741 0.4405
6.7306 1.7240 0.4521
6.7321 2.8595 0.4756
6.7337 4.1525 0.5140
6.7406 5.7180 0.5739
6.7432 7.7447 0.6663
6.7523 15.3444 1.0867
6.7545 25.0244 1.6797
6.6624 10.4988 0.8063
-1.3785 36.0749 2.3390
4.0606 35.8711 2.3390
-6.3436 33.1438 2.1866
-11.9013 33.6420 2.3128
-7.4673 13.9683 1.0269
-19.7712 26.4524 2.1422
-22.3599 22.0328 2.0375
-21.3199 15.4507 1.7101
-21.3303 11.0019 1.5600
-21.3289 7.1934 1.4643
-21.3320 3.7577 1.4103
-21.3345 0.5003 1.3906
-21.3343 -2.7343 1.4029
-21.3367 -6.0982 1.4486
-21.3427 -13.9901 1.6685
-21.3389 -9.7686 1.5333
-21.3520 -19.1525 1.8767
-21.2270 -25.7861 2.1866
-13.4113 -32.9182 2.3292
-18.2102 -30.5310 2.3285
-7.7990 -32.4362 2.1866
-3.0306 -35.5520 2.3390
2.3490 -35.6034 2.3390
6.6897 -30.3708 2.0384
6.7039 -11.7454 0.8859
6.7166 -8.4853 0.7085
6.7196 -6.2638 0.6011
6.7116 -17.4213 1.2234
6.7196 -4.5911 0.5321
6.7214 -3.2341 0.4873
6.7243 -0.9931 0.4434
6.6419 0.0285 0.4328
6.7298 1.0530 0.4435
6.7311 2.1274 0.4592
6.7327 3.3109 0.4877
6.7229 -2.0616 0.4591
6.7344 4.6863 0.5329
6.7415 6.3929 0.6030
6.7444 8.6719 0.7126
6.7579 17.9985 1.2461
6.7482 12.0614 0.8961
6.9775 33.0169 2.1867
-3.3727 35.9425 2.3390
2.0694 36.0417 2.3390
-8.1674 32.7396 2.1866
-17.5619 28.8831 2.1920
-20.9354 24.9960 2.1154
-21.3156 18.7958 1.8450
-21.3239 13.7206 1.6473
-21.3264 9.5451 1.5191
-21.3316 5.9017 1.4402
-13.6411 32.6834 2.2957
-21.3372 -0.6813 1.3916
-21.3339 2.5507 1.3993
-21.3348 -3.9449 1.4156
-21.3387 -11.2364 1.5760
-21.3454 -15.7470 1.7348
-21.3488 -21.3967 1.9781
-21.3371 -7.3982 1.4747
-19.7635 -26.9160 2.1866
-11.5892 -33.6682 2.3335
-16.4439 -31.3991 2.3220
4.3159 -35.4200 2.3390
-1.0585 -35.6646 2.3390
-5.9916 -32.8159 2.1866
6.7047 -24.0226 1.6346
6.6997 -14.8787 1.0691
-21.3340 -1.5408 1.6490
-21.3367 -4.8389 1.6880
-21.3383 -8.3731 1.7698
-21.3381 -12.3553 1.9050
-21.3472 -17.1140 2.1151
-19.7088 -21.4078 2.2507
-16.8963 -25.0625 2.3390
-12.9312 -27.3076 2.3390
-8.1111 -27.0489 2.1866
-4.2268 -29.9051 2.3390
0.3174 -30.1993 2.3390
4.7048 -28.8903 2.2668
6.6830 -20.6950 1.6839
6.7016 -13.4155 1.1608
6.7151 -9.5224 0.9016
6.7185 -6.9966 0.7502
6.6373 -5.0956 0.6468
6.7207 -3.7050 0.5928
6.7223 -2.4761 0.5530
6.7238 -1.3769 0.5294
6.6441 -0.3396 0.5128
6.7292 0.6741 0.5209
6.7306 1.7240 0.5348
6.7320 2.8595 0.5626
6.7337 4.1525 0.6081
6.7405 5.7180 0.6790
6.7431 7.7447 0.7884
6.6623 10.4987 0.9542
6.7522 15.3442 1.2860
6.7543 25.0238 1.9879
3.4309 30.3082 2.3390
-1.1647 30.4803 2.3390
-5.7334 29.9560 2.3390
-10.1320 28.6408 2.3303
-7.4603 13.9553 1.2142
-17.6445 23.6072 2.2623
-20.2806 19.9841 2.1866
-21.3204 15.4511 2.0233
-21.3303 11.0020 1.8454
-21.3290 7.1936 1.7320
-21.3319 3.7578 1.6679
-21.3346 0.5004 1.6445
-21.3344 -2.7343 1.6587
-21.3365 -6.0981 1.7125
-21.3394 -9.7687 1.8124
-21.3432 -13.9903 1.9721
-21.0512 -18.8826 2.1866
-19.2157 -23.3435 2.3390
-15.4812 -25.9553 2.3390
-11.3990 -27.9787 2.3390
-6.6012 -27.4544 2.1866
-2.5653 -30.0923 2.3390
1.9883 -30.1358 2.3390
6.0740 -27.5756 2.1866
6.7114 -17.4209 1.4454
6.7038 -11.7452 1.0467
6.7165 -8.4852 0.8372
6.7195 -6.2637 0.7103
6.7195 -4.5910 0.6289
6.7213 -3.2340 0.5760
6.7229 -2.0616 0.5427
6.7243 -0.9931 0.5242
6.6418 0.0285 0.5118
6.7297 1.0530 0.5245
6.7311 2.1274 0.5432
6.7326 3.3109 0.5769
6.7344 4.6863 0.6305
6.7414 6.3929 0.7135
6.7443 8.6718 0.8433
6.7481 12.0612 1.0605
6.7578 17.9983 1.4747
5.8953 27.8962 2.1866
1.7484 30.4523 2.3390
-2.8496 30.3685 2.3390
-6.9010 27.6630 2.1866
-11.6048 27.8047 2.3113
-15.0766 24.7957 2.2269
-19.2060 22.9313 2.2964
-21.3156 18.7959 2.1830
-21.3238 13.7207 1.9489
-21.3260 9.5450 1.7970
-21.3317 5.9019 1.7035
-21.3338 2.5508 1.6549
-21.3373 -0.6812 1.6455
-21.3349 -3.9448 1.6736
-21.3375 -7.3982 1.7433
-21.3390 -11.2365 1.8629
-21.3459 -15.7473 2.0503
-19.9700 -20.0147 2.1866
-17.8915 -24.3663 2.3390
-14.0191 -26.7688 2.3390
-9.1916 -26.7029 2.1866
-5.4249 -29.7120 2.3390
-0.8959 -30.1878 2.3390
3.6531 -29.9804 2.3390
6.7046 -24.0218 1.9312
6.6996 -14.8783 1.2632
-21.3341 -1.5407 1.9039
-21.3366 -4.8388 1.9486
-21.3387 -8.3731 2.0429
-21.2202 -12.2870 2.1866
-19.7082 -15.7999 2.2537
-17.7479 -19.2778 2.3390
-14.6419 -21.7184 2.3390
-11.2065 -23.6654 2.3390
-7.0294 -23.4417 2.1866
0.2751 -26.1727 2.3390
-3.6632 -25.9175 2.3390
4.2073 -25.8353 2.3390
6.7015 -13.4152 1.3395
6.6831 -20.6950 1.9430
6.7184 -6.9965 0.8658
6.7150 -9.5222 1.0404
6.6372 -5.0955 0.7465
6.7207 -3.7050 0.6843
6.7237 -1.3769 0.6112
6.7223 -2.4760 0.6384
6.6441 -0.3396 0.5921
6.7305 1.7241 0.6175
6.7320 2.8596 0.6497
6.7336 4.1525 0.7023
6.7292 0.6741 0.6015
6.7405 5.7180 0.7843
6.7430 7.7446 0.9107
6.7521 15.3440 1.4857
6.6622 10.4986 1.1023
6.4306 23.8246 2.1866
2.9695 26.2327 2.3390
-4.9625 25.9281 2.3390
-1.0081 26.3815 2.3390
-8.2290 23.2617 2.1866
-15.7917 21.1283 2.3390
-7.4534 13.9423 1.4014
-18.7806 18.5061 2.3390
-21.3302 11.0021 2.1314
-19.9484 14.4569 2.1866
-21.3290 7.1937 2.0002
-21.3318 3.7578 1.9259
-21.3348 0.5005 1.8987
-21.3364 -6.0980 1.9769
-21.3345 -2.7342 1.9150
-21.3398 -9.7688 2.0921
-20.5036 -13.4398 2.1866
-19.5118 -17.5017 2.3390
-13.4158 -22.4926 2.3390
-16.6512 -20.2273 2.3390
-9.8787 -24.2470 2.3390
-2.2232 -26.0799 2.3390
-5.7726 -24.0081 2.2063
1.7232 -26.1176 2.3390
6.7113 -17.4204 1.6678
6.7037 -11.7450 1.2078
5.2641 -23.8984 2.1866
6.7194 -6.2635 0.8198
6.7164 -8.4850 0.9661
6.7195 -4.5909 0.7259
6.7228 -2.0615 0.6265
6.7242 -0.9930 0.6052
6.7213 -3.2340 0.6649
6.7297 1.0530 0.6057
6.7310 2.1275 0.6273
6.7326 3.3109 0.6663
6.6418 0.0285 0.5910
6.7442 8.6717 0.9741
6.7343 4.6863 0.7282
6.7480 12.0611 1.2251
5.1026 24.1453 2.1866
6.7413 6.3929 0.8242
1.5133 26.3573 2.3390
6.7576 17.9980 1.7037
-2.4664 26.2849 2.3390
-10.1652 24.3556 2.3390
-5.9731 23.9436 2.1866
-13.7072 22.5438 2.3390
-19.6938 17.3659 2.3297
-21.3256 9.5449 2.0753
-16.9342 20.2190 2.3390
-20.7137 13.3282 2.1866
-21.3338 2.5509 1.9108
-21.3318 5.9020 1.9672
-21.3379 -7.3983 2.0124
-21.3350 -3.9447 1.9321
-21.3393 -11.2365 2.1503
-18.5101 -18.5516 2.3390
-15.5040 -21.1148 2.3390
-21.3375 -0.6811 1.8999
-7.9658 -23.1416 2.1866
-4.7015 -25.7501 2.3390
-19.7321 -14.5567 2.1874
-0.7765 -26.1626 2.3390
-12.1490 -23.1979 2.3390
3.1660 -25.9829 2.3390
6.5790 -23.5719 2.1866
6.6995 -14.8779 1.4575
-21.3342 -1.5406 2.1593
-21.1121 -4.7878 2.1866
-20.1413 -7.9032 2.1866
-19.6992 -11.4062 2.3017
-18.0400 -14.4624 2.3390
-15.6540 -17.0033 2.3390
-12.9151 -19.1569 2.3390
-9.8852 -20.8750 2.3390
-6.2008 -20.6783 2.1866
-3.2315 -22.8626 2.3390
0.2427 -23.0878 2.3390
3.7114 -22.7901 2.3390
6.6343 -20.5441 2.1866
6.7014 -13.4149 1.5185
6.7150 -9.5220 1.1795
6.7184 -6.9964 0.9816
6.6371 -5.0954 0.8464
6.7206 -3.7049 0.7759
6.7222 -2.4759 0.7239
6.7237 -1.3769 0.6931
6.6440 -0.3396 0.6715
6.7291 0.6742 0.6822
6.7305 1.7241 0.7005
6.7336 4.1525 0.7968
6.7404 5.7179 0.8898
6.7319 2.8596 0.7370
6.7429 7.7446 1.0333
6.6621 10.4985 1.2508
6.7520 15.3438 1.6859
5.6670 20.9957 2.1866
2.6169 23.1175 2.3390
-0.8884 23.2486 2.3390
-4.3732 22.8493 2.3390
-7.2520 20.5000 2.1866
-13.9178 18.6212 2.3390
-7.4464 13.9294 1.5887
-16.5528 16.3110 2.3390
-18.8086 13.6310 2.3390
-20.5553 6.9328 2.1866
-21.3318 3.7579 2.1845
-21.3349 0.5007 2.1535
-21.3346 -2.7341 2.1718
-20.8106 -5.9477 2.1866
-19.7266 -9.0301 2.1930
-19.7115 10.1672 2.2344
-19.3432 -12.6791 2.3390
-17.2092 -15.4362 2.3390
-14.6870 -17.8411 2.3390
-11.8338 -19.8400 2.3390
-8.1463 -19.9947 2.1866
-5.3983 -22.4515 2.3390
1.5201 -23.0392 2.3390
4.7136 -21.3994 2.2196
6.7112 -17.4200 1.8906
-1.9612 -23.0059 2.3390
6.7036 -11.7447 1.3692
6.7194 -6.2635 0.9294
6.7194 -4.5908 0.8230
6.7164 -8.4849 1.0953
6.7212 -3.2339 0.7540
6.7228 -2.0615 0.7104
6.7242 -0.9930 0.6863
6.6417 0.0286 0.6703
6.7296 1.0530 0.6870
6.7310 2.1275 0.7116
6.7342 4.6863 0.8262
6.7325 3.3109 0.7559
6.7441 8.6717 1.1053
6.7412 6.3928 0.9351
6.7479 12.0610 1.3901
4.7017 22.2480 2.2863
-2.1735 23.1635 2.3390
6.7575 17.9976 1.9332
-8.3747 20.0657 2.1866
-5.6307 22.5712 2.3390
1.3336 23.2273 2.3390
-12.0803 19.8682 2.3390
-14.9250 17.8201 2.3390
-19.5307 12.5670 2.3390
-19.8068 8.8651 2.1866
-17.4274 15.3675 2.3390
-21.3376 -0.6810 2.1548
-21.3337 2.5509 2.1674
-21.2906 -3.9365 2.1866
-19.7084 -10.3777 2.2519
-18.6087 -13.7278 2.3390
-20.4454 -7.0888 2.1866
-16.3261 -16.3625 2.3390
-13.6753 -18.6242 2.3390
-7.0268 -20.4134 2.1866
-20.9032 5.7835 2.1866
-10.7165 -20.4625 2.3390
2.7929 -22.9202 2.3390
-4.1474 -22.7149 2.3390
5.8034 -20.7931 2.1866
-0.6850 -23.0789 2.3390
6.6994 -14.8776 1.6523
-19.7121 -1.4234 2.2316
-19.7027 -4.4682 2.2824
-19.2637 -7.5588 2.3390
-17.9001 -10.3644 2.3390
-16.1315 -12.9323 2.3390
-13.9985 -15.2050 2.3390
-11.5496 -17.1314 2.3390
-8.2644 -17.4522 2.1866
-5.7616 -19.2137 2.2718
-2.8900 -20.4467 2.3390
0.2171 -20.6482 2.3390
3.3192 -20.3818 2.3390
5.9332 -18.3729 2.1866
6.7013 -13.4146 1.6979
6.7149 -9.5219 1.3189
6.7183 -6.9963 1.0976
6.6371 -5.0954 0.9465
6.7205 -3.7048 0.8677
6.7222 -2.4759 0.8096
6.7236 -1.3768 0.7753
6.6440 -0.3395 0.7511
6.7291 0.6742 0.7631
6.7304 1.7241 0.7836
6.7319 2.8596 0.8245
6.7335 4.1525 0.8914
6.7403 5.7179 0.9956
6.7429 7.7445 1.1562
6.6620 10.4984 1.3996
6.7518 15.3436 1.8864
5.0642 18.7626 2.1866
2.3385 20.6585 2.3390
-0.7939 20.7756 2.3390
-3.9080 20.4189 2.3390
-6.4807 18.3197 2.1866
-12.4382 16.6418 2.3390
-14.7938 14.5777 2.3390
-7.4394 13.9164 1.7760
-16.8106 12.1831 2.3390
-19.6543 6.6290 2.3390
-18.4430 9.5130 2.3390
-19.7073 3.4718 2.2577
-19.7098 -2.5258 2.2442
-19.6968 -5.6292 2.3147
-18.8126 -8.6118 2.3390
-17.2963 -11.3373 2.3390
-19.7132 0.4626 2.2258
-13.1340 -15.9545 2.3390
-15.3889 -13.8033 2.3390
-10.5828 -17.7426 2.3390
-7.2853 -17.8814 2.1866
-4.8279 -20.0789 2.3390
-1.7540 -20.5749 2.3390
1.3595 -20.6047 2.3390
4.4423 -20.1676 2.3390
6.7035 -11.7445 1.5311
6.7163 -8.4847 1.2248
6.7193 -6.2633 1.0393
6.9415 -18.0178 2.1866
6.7194 -4.5908 0.9204
6.7212 -3.2339 0.8432
6.7241 -0.9930 0.7677
6.6417 0.0286 0.7497
6.7296 1.0531 0.7685
6.7227 -2.0614 0.7946
6.7309 2.1275 0.7960
6.7324 3.3109 0.8456
6.7342 4.6863 0.9243
6.7412 6.3928 1.0463
6.7478 12.0609 1.5554
6.7440 8.6716 1.2367
6.8304 18.1921 2.1866
4.2984 20.3402 2.3390
-1.9423 20.6996 2.3390
-5.0318 20.1705 2.3390
1.1917 20.7566 2.3390
-7.4841 17.9318 2.1866
-10.7959 17.7558 2.3390
-15.5757 13.7348 2.3390
-17.4563 11.2324 2.3390
-13.3386 15.9261 2.3390
-19.6984 5.4502 2.3052
-18.9380 8.4764 2.3390
-19.7105 2.3569 2.2400
-19.7130 -0.6292 2.2268
-19.7062 -3.6434 2.2637
-18.3041 -9.6381 2.3390
-19.5543 -6.7798 2.3390
-16.6398 -12.2752 2.3390
-14.5994 -14.6318 2.3390
-12.2295 -16.6550 2.3390
-8.9593 -17.1071 2.1866
-3.7091 -20.3146 2.3390
-0.6126 -20.6403 2.3390
2.4977 -20.4982 2.3390
-6.2842 -18.2561 2.1866
5.1902 -18.5957 2.1866
6.6993 -14.8772 1.8476
-18.6758 -1.3485 2.3390
-18.2523 -4.1391 2.3390
-17.4148 -6.8332 2.3390
-16.1827 -9.3699 2.3390
-14.5844 -11.6920 2.3390
-12.6565 -13.7472 2.3390
-10.4427 -15.4894 2.3390
-7.4725 -15.7797 2.1866
-5.3637 -17.8866 2.3390
-2.6132 -18.4879 2.3390
0.1963 -18.6701 2.3390
3.0013 -18.4291 2.3390
5.3647 -16.6125 2.1866
6.7011 -13.4143 1.8778
6.7148 -9.5217 1.4588
6.7182 -6.9961 1.2140
6.6370 -5.0953 1.0469
6.7205 -3.7048 0.9598
6.7221 -2.4758 0.8956
6.7236 -1.3768 0.8576
6.6439 -0.3395 0.8309
6.7290 0.6742 0.8443
6.7304 1.7241 0.8670
6.7318 2.8596 0.9123
6.7403 5.7179 1.1016
6.7334 4.1525 0.9863
6.7428 7.7445 1.2794
6.6620 10.4983 1.5487
7.0724 16.0721 2.1867
4.7084 17.4442 2.2498
2.1131 18.6675 2.3390
-3.5314 18.4511 2.3390
-5.8562 16.5545 2.1866
-0.7174 18.7733 2.3390
-7.4325 13.9034 1.9635
-13.3692 13.1741 2.3390
-11.2402 15.0389 2.3390
-16.6685 8.5978 2.3390
-17.7640 5.9915 2.3390
-15.1924 11.0104 2.3390
-18.7248 0.4395 2.3390
-18.4545 3.2512 2.3390
-18.5694 -2.3796 2.3390
-17.9923 -5.1420 2.3390
-15.6371 -10.2497 2.3390
-17.0073 -7.7853 2.3390
-11.8749 -14.4250 2.3390
-13.9132 -12.4796 2.3390
-8.9451 -14.9969 2.1866
-4.3654 -18.1552 2.3390
-6.5873 -16.1680 2.1866
1.2292 -18.6307 2.3390
4.0167 -18.2354 2.3390
6.2763 -16.2911 2.1866
6.7034 -11.7442 1.6933
-1.5859 -18.6038 2.3390
6.7192 -6.2632 1.1496
6.7162 -8.4846 1.3547
6.7193 -4.5907 1.0181
6.7211 -3.2338 0.9327
6.7241 -0.9929 0.8492
6.6416 0.0286 0.8294
6.7295 1.0531 0.8502
6.7309 2.1275 0.8807
6.7227 -2.0614 0.8789
6.7341 4.6863 1.0228
6.7324 3.3109 0.9357
6.7411 6.3928 1.1578
6.7439 8.6716 1.3685
6.1722 16.4391 2.1866
6.7477 12.0607 1.7213
1.0769 18.7561 2.3390
3.8842 18.3799 2.3390
-1.7551 18.7046 2.3390
-4.5468 18.2267 2.3390
-12.0539 14.3923 2.3390
-14.0760 12.4124 2.3390
-15.7762 10.1515 2.3390
-6.7629 16.2040 2.1866
-17.1160 7.6610 2.3390
-18.0653 4.9984 2.3390
-9.1202 14.9997 2.1866
-18.7172 -0.5973 2.3390
-17.6773 -6.1289 2.3390
-18.4061 -3.4030 2.3390
-16.5479 -8.7132 2.3390
-15.0438 -11.0978 2.3390
-11.0572 -15.0585 2.3390
-13.1996 -13.2289 2.3390
-8.1008 -15.4677 2.1866
-18.6029 2.2246 2.3390
-5.7702 -16.7627 2.2205
-3.3538 -18.3683 2.3390
4.7197 -16.9101 2.1991
2.2585 -18.5345 2.3390
6.6991 -14.8769 2.0433
-0.5539 -18.6629 2.3390
-17.0345 -1.2299 2.3390
-16.6490 -3.7754 2.3390
-15.8856 -6.2331 2.3390
-14.7622 -8.5474 2.3390
-13.3047 -10.6660 2.3390
-11.5462 -12.5412 2.3390
-8.9061 -13.2102 2.1866
-6.8173 -14.3961 2.1866
-4.8934 -16.3184 2.3390
-2.3841 -16.8672 2.3390
0.1791 -17.0334 2.3390
2.7382 -16.8135 2.3390
4.8944 -15.1560 2.1866
6.7010 -13.4140 2.0583
6.7147 -9.5215 1.5990
6.7182 -6.9960 1.3308
6.6370 -5.0952 1.1476
6.7204 -3.7047 1.0522
6.7221 -2.4758 0.9818
6.7235 -1.3767 0.9402
6.6439 -0.3395 0.9110
6.7290 0.6742 0.9257
6.7303 1.7241 0.9506
6.7318 2.8596 1.0003
6.7402 5.7179 1.2080
6.7427 7.7444 1.4030
6.6619 10.4982 1.6983
6.7334 4.1525 1.0815
6.4488 14.6551 2.1866
1.9268 17.0222 2.3390
4.4637 16.5377 2.3390
-0.6541 17.1186 2.3390
-5.7123 16.1477 2.3390
-3.2201 16.8248 2.3390
-7.4255 13.8904 2.1512
-12.1918 12.0139 2.3390
-13.8548 10.0411 2.3390
-15.2014 7.8411 2.3390
-10.2499 13.7141 2.3390
-16.8315 2.9654 2.3390
-17.0788 0.4010 2.3390
-16.9377 -2.1704 2.3390
-16.2011 5.4644 2.3390
-15.5141 -7.1017 2.3390
-14.2647 -9.3500 2.3390
-12.6925 -11.3846 2.3390
-10.8334 -13.1597 2.3390
-16.4120 -4.6903 2.3390
-6.0097 -14.7504 2.1866
-3.9827 -16.5636 2.3390
-8.1607 -13.6817 2.1866
-1.4469 -16.9730 2.3390
1.1215 -16.9975 2.3390
5.7260 -14.8627 2.1866
6.7033 -11.7440 1.8561
6.7161 -8.4844 1.4849
6.7191 -6.2631 1.2601
6.7192 -4.5906 1.1160
6.7211 -3.2337 1.0225
6.7226 -2.0613 0.9636
3.6646 -16.6367 2.3390
6.6416 0.0287 0.9094
6.7240 -0.9929 0.9310
6.7308 2.1275 0.9657
6.7294 1.0531 0.9322
6.7341 4.6863 1.1215
6.7410 6.3928 1.2695
6.7476 12.0606 1.8876
6.7323 3.3109 1.0259
6.7439 8.6715 1.5007
5.6283 14.9904 2.1866
0.9820 17.1029 2.3390
3.5418 16.7600 2.3390
-6.1669 14.7761 2.1866
-8.3166 13.6783 2.1866
-4.1461 16.6203 2.3390
-1.6004 17.0560 2.3390
-10.9921 13.1246 2.3390
-14.3874 9.2578 2.3390
-16.4762 4.5588 2.3390
-12.8365 11.3195 2.3390
-15.6098 6.9869 2.3390
-16.7891 -3.1040 2.3390
-16.1249 -5.5906 2.3390
-17.0721 -0.5447 2.3390
-15.0952 -7.9483 2.3390
-16.9672 2.0291 2.3390
-13.7236 -10.1238 2.3390
-7.3904 -14.1114 2.1866
-10.0875 -13.7378 2.3390
-3.0598 -16.7580 2.3390
-5.5452 -16.1092 2.3390
-12.0416 -12.0682 2.3390
4.5799 -16.4091 2.3390
-0.5054 -17.0269 2.3390
2.0605 -16.9097 2.3390
6.5402 -14.5239 2.1866
-15.6543 -1.1302 2.3390
-15.3005 -3.4696 2.3390
-14.5995 -5.7284 2.3390
-13.5675 -7.8555 2.3390
-12.2282 -9.8029 2.3390
-10.6123 -11.5267 2.3390
-8.1859 -12.1419 2.1866
-6.2661 -13.2321 2.1866
-4.4979 -14.9991 2.3390
-2.1914 -15.5036 2.3390
0.1646 -15.6565 2.3390
2.5168 -15.4543 2.3390
4.7015 -14.5587 2.2852
6.5431 -13.0979 2.1866
6.7146 -9.5213 1.7396
6.7181 -6.9959 1.4479
6.6369 -5.0951 1.2486
6.7204 -3.7046 1.1448
6.7220 -2.4757 1.0683
6.7235 -1.3767 1.0231
6.6438 -0.3394 0.9913
6.7289 0.6743 1.0073
6.7303 1.7242 1.0345
6.7317 2.8596 1.0886
6.7333 4.1525 1.1771
6.7401 5.7179 1.3147
6.7426 7.7444 1.5269
6.6618 10.4981 1.8484
5.9249 13.4647 2.1866
1.7703 15.6392 2.3390
-0.6010 15.7278 2.3390
4.1011 15.1943 2.3390
-2.9585 15.4580 2.3390
-6.9345 12.9720 2.1866
-8.8040 11.7795 2.1866
-5.2482 14.8361 2.3390
-11.2020 11.0386 2.3390
-13.9681 7.2050 2.3390
-14.8871 5.0213 2.3390
-12.7304 9.2262 2.3390
-15.4669 2.7250 2.3390
-15.5655 -1.9945 2.3390
-15.0829 -4.3104 2.3390
-14.2582 -6.5267 2.3390
-13.1103 -8.5933 2.3390
-11.6657 -10.4635 2.3390
-15.6947 0.3685 2.3390
-9.9572 -12.0952 2.3390
-5.7602 -14.1379 2.2802
-3.6607 -15.2245 2.3390
-1.3299 -15.6009 2.3390
1.0308 -15.6235 2.3390
3.3684 -15.2918 2.3390
5.2631 -13.6611 2.1866
-7.5008 -12.5753 2.1866
6.7032 -11.7437 2.0193
6.7160 -8.4843 1.6155
6.7191 -6.2630 1.3710
6.7192 -4.5905 1.2142
6.7210 -3.2337 1.1125
6.7226 -2.0613 1.0485
6.7240 -0.9928 1.0131
6.6415 0.0287 0.9895
6.7308 2.1275 1.0509
6.7294 1.0531 1.0144
6.7340 4.6863 1.2206
6.7323 3.3109 1.1165
6.7410 6.3927 1.3817
6.7475 12.0605 2.0544
5.1710 13.7727 2.1866
3.2541 15.3984 2.3390
0.9022 15.7134 2.3390
6.7438 8.6715 1.6334
-1.4704 15.6703 2.3390
-3.8093 15.2701 2.3390
-7.6412 12.5675 2.1866
-10.0996 12.0590 2.3390
-5.7689 13.8226 2.2263
-11.7945 10.4007 2.3390
-13.2198 8.5066 2.3390
-14.3435 6.4202 2.3390
-15.5918 1.8646 2.3390
-15.6887 -0.5005 2.3390
-15.4291 -2.8525 2.3390
-14.8192 -5.1378 2.3390
-15.1401 4.1892 2.3390
-12.6132 -9.3046 2.3390
-13.8733 -7.3048 2.3390
-11.0675 -11.0920 2.3390
-8.6676 -11.8040 2.1866
-6.7929 -12.9703 2.1866
-5.0969 -14.8068 2.3390
-2.8125 -15.4033 2.3390
1.8939 -15.5427 2.3390
-0.4645 -15.6505 2.3390
4.2096 -15.0825 2.3390
6.0114 -13.3496 2.1866
-14.4772 -1.0451 2.3390
-14.1504 -3.2087 2.3390
-13.5024 -5.2979 2.3390
-12.5483 -7.2654 2.3390
-11.3099 -9.0667 2.3390
-9.1760 -9.9665 2.1866
-7.5715 -11.2304 2.1866
-5.7958 -12.2389 2.1866
-4.1603 -13.8736 2.3390
-2.0269 -14.3403 2.3390
0.1522 -14.4817 2.3390
2.3280 -14.2947 2.3390
4.4512 -13.7834 2.3390
6.0520 -12.1149 2.1866
6.7145 -9.5212 1.8808
6.7180 -6.9958 1.5654
6.6368 -5.0950 1.3500
6.7203 -3.7046 1.2378
6.7220 -2.4757 1.1551
6.7234 -1.3766 1.1062
6.6438 -0.3394 1.0719
6.7289 0.6743 1.0893
6.7302 1.7242 1.1187
6.7316 2.8596 1.1772
6.7333 4.1525 1.2729
6.7401 5.7179 1.4218
6.7425 7.7443 1.6513
6.6617 10.4980 1.9991
5.4784 12.4499 2.1866
3.7919 14.0490 2.3390
1.6368 14.4603 2.3390
-0.5557 14.5422 2.3390
-2.7355 14.2928 2.3390
-4.8526 13.7178 2.3390
-6.4119 11.9944 2.1866
-8.1406 10.8920 2.1866
-10.3581 10.2071 2.3390
-11.7716 8.5314 2.3390
-12.9164 6.6626 2.3390
-13.7666 4.6435 2.3390
-14.3032 2.5201 2.3390
-14.5142 0.3409 2.3390
-14.3952 -1.8445 2.3390
-13.9493 -3.9864 2.3390
-13.1869 -6.0363 2.3390
-12.1256 -7.9478 2.3390
-10.7897 -9.6777 2.3390
-8.6096 -10.4583 2.1866
-6.9378 -11.6314 2.1866
-5.4654 -13.4143 2.3390
-3.3860 -14.0820 2.3390
-1.2302 -14.4303 2.3390
0.9535 -14.4512 2.3390
3.1156 -14.1443 2.3390
4.8681 -12.6358 2.1866
6.7137 -11.7621 2.1866
6.7160 -8.4841 1.7466
6.7190 -6.2629 1.4823
6.7191 -4.5904 1.3128
6.7209 -3.2336 1.2029
6.7225 -2.0612 1.1337
6.7239 -0.9928 1.0954
6.6415 0.0287 1.0700
6.7293 1.0532 1.0970
6.7307 2.1276 1.1365
6.7322 3.3109 1.2074
6.7339 4.6863 1.3199
6.7409 6.3927 1.4943
6.7437 8.6714 1.7664
6.6404 11.8693 2.1866
4.7813 12.7345 2.1866
3.0088 14.2377 2.3390
0.8342 14.5289 2.3390
-1.3595 14.4890 2.3390
-3.5221 14.1191 2.3390
-5.6040 13.4275 2.3390
-7.0653 11.6204 2.1866
-8.7301 10.4239 2.1866
-10.9060 9.6173 2.3390
-12.2243 7.8661 2.3390
-13.2637 5.9369 2.3390
-14.0007 3.8740 2.3390
-14.4188 1.7244 2.3390
-14.5089 -0.4628 2.3390
-14.2692 -2.6379 2.3390
-13.7056 -4.7516 2.3390
-12.8311 -6.7560 2.3390
-11.6659 -8.6057 2.3390
-10.2366 -10.2591 2.3390
-8.0169 -10.9178 2.1866
-6.2831 -11.9968 2.1866
-4.7144 -13.6956 2.3390
-2.6014 -14.2475 2.3390
-0.4296 -14.4761 2.3390
1.7518 -14.3764 2.3390
3.8938 -13.9506 2.3390
5.5602 -12.3477 2.1866
-13.4611 -0.9717 2.3390
-13.1576 -2.9835 2.3390
-7.7665 -3.0473 1.4469
-11.6684 -6.7558 2.3390
-10.5171 -8.4310 2.3390
-8.5329 -9.2680 2.1866
-7.0409 -10.4435 2.1866
-5.7513 -12.1449 2.3333
-3.8689 -12.9016 2.3390
-1.8850 -13.3358 2.3390
0.1416 -13.4673 2.3390
2.1649 -13.2933 2.3390
4.1394 -12.8177 2.3390
5.6280 -11.2660 2.1866
6.7144 -9.5210 2.0225
6.6368 -5.0949 1.4518
6.7179 -6.9956 1.6833
6.7219 -2.4756 1.2422
6.7234 -1.3766 1.1897
6.7203 -3.7045 1.3311
6.6437 -0.3394 1.1528
6.7288 0.6743 1.1715
6.7302 1.7242 1.2032
6.7316 2.8596 1.2662
6.7400 5.7178 1.5293
6.7332 4.1525 1.3691
6.7425 7.7443 1.7762
6.7741 10.6753 2.1866
3.5252 13.0607 2.3390
5.0930 11.5742 2.1866
-0.5166 13.5192 2.3390
1.5217 13.4431 2.3390
-2.5430 13.2874 2.3390
-5.9609 11.1509 2.1866
-4.5113 12.7529 2.3390
-7.5681 10.1261 2.1866
-10.9442 7.9319 2.3390
-9.0024 8.8713 2.1866
-12.7996 4.3173 2.3390
-13.2988 2.3431 2.3390
-13.4953 0.3170 2.3390
-12.0088 6.1945 2.3390
-13.3850 -1.7150 2.3390
-12.9707 -3.7067 2.3390
-12.2621 -5.6129 2.3390
-10.0334 -8.9993 2.3390
-8.0063 -9.7253 2.1866
-6.4517 -10.8164 2.1866
-5.0825 -12.4746 2.3390
-3.1488 -13.0956 2.3390
-11.2754 -7.3905 2.3390
0.8867 -13.4389 2.3390
2.8974 -13.1535 2.3390
-1.1440 -13.4195 2.3390
6.2433 -10.9380 2.1866
6.7159 -8.4839 1.8782
6.7189 -6.2628 1.5940
4.7040 -12.2098 2.2720
6.7191 -4.5904 1.4118
6.7209 -3.2335 1.2936
6.7239 -0.9928 1.1781
6.7225 -2.0612 1.2192
6.7293 1.0532 1.1798
6.6414 0.0288 1.1508
6.7307 2.1276 1.2223
6.7322 3.3110 1.2987
6.7339 4.6863 1.4197
6.7408 6.3927 1.6072
6.7436 8.6713 1.9000
4.6971 12.5104 2.3106
2.7971 13.2362 2.3390
6.1734 11.0345 2.1866
0.7755 13.5068 2.3390
-1.2639 13.4698 2.3390
-5.2099 12.4830 2.3390
-6.5684 10.8032 2.1866
-3.2743 13.1259 2.3390
-8.1163 9.6910 2.1866
-10.1393 8.9413 2.3390
-12.3318 5.5199 2.3390
-13.0173 3.6020 2.3390
-13.4064 1.6034 2.3390
-13.4905 -0.4302 2.3390
-13.2680 -2.4528 2.3390
-12.7442 -4.4183 2.3390
-11.9313 -6.2822 2.3390
-10.8480 -8.0023 2.3390
-8.8989 -8.9184 2.1866
-11.3652 7.3133 2.3390
-4.3842 -12.7362 2.3390
-2.4192 -13.2494 2.3390
-7.4552 -10.1527 2.1866
-5.8429 -11.1562 2.1866
3.6210 -12.9733 2.3390
-0.3996 -13.4621 2.3390
1.6291 -13.3694 2.3390
5.1707 -11.4826 2.1866
-12.5749 -0.9077 2.3390
-12.2916 -2.7871 2.3390
-7.7466 -3.0394 1.5448
-10.9009 -6.3114 2.3390
-9.1853 -7.3635 2.1866
-7.9719 -8.6587 2.1866
-6.5781 -9.7569 2.1866
-5.3865 -11.3745 2.3390
-3.6147 -12.0537 2.3390
-1.7611 -12.4594 2.3390
0.1323 -12.5823 2.3390
2.0227 -12.4197 2.3390
3.8673 -11.9754 2.3390
5.2581 -10.5255 2.1866
6.7820 -9.6169 2.1866
6.7179 -6.9955 1.8018
6.6367 -5.0948 1.5540
6.7202 -3.7044 1.4248
6.7219 -2.4756 1.3297
6.7233 -1.3766 1.2735
6.6437 -0.3393 1.2341
6.7288 0.6743 1.2541
6.7301 1.7242 1.2880
6.7315 2.8596 1.3555
6.7331 4.1525 1.4657
6.7399 5.7178 1.6372
6.7424 7.7443 1.9016
6.3273 9.9713 2.1866
4.7570 10.8108 2.1866
3.2926 12.1991 2.3390
1.4213 12.5562 2.3390
-0.4825 12.6273 2.3390
-2.3753 12.4108 2.3390
-5.7628 10.7804 2.2632
-4.2137 11.9116 2.3390
-7.0690 9.4583 2.1866
-10.2228 7.4090 2.3390
-11.2174 5.7863 2.3390
-11.9563 4.0329 2.3390
-12.4228 2.1889 2.3390
-12.6067 0.2962 2.3390
-8.4088 8.2863 2.1866
-12.1172 -3.4627 2.3390
-11.4554 -5.2435 2.3390
-12.5039 -1.6020 2.3390
-10.5338 -6.9043 2.3390
-7.4799 -9.0859 2.1866
-8.7629 -7.8597 2.1866
-4.7485 -11.6547 2.3390
-2.9419 -12.2350 2.3390
-1.0688 -12.5376 2.3390
0.8284 -12.5557 2.3390
2.7070 -12.2890 2.3390
4.5243 -11.7434 2.3390
-6.0277 -10.1054 2.1866
6.7158 -8.4838 2.0104
5.8329 -10.2190 2.1866
6.7190 -4.5903 1.5112
6.7189 -6.2627 1.7062
6.7208 -3.2335 1.3847
6.7238 -0.9927 1.2611
6.7224 -2.0611 1.3050
6.6414 0.0288 1.2319
6.7306 2.1276 1.3085
6.7292 1.0532 1.2630
6.7321 3.3110 1.3903
6.7407 6.3927 1.7207
6.7338 4.6863 1.5199
5.7662 10.3067 2.1866
4.4411 11.8286 2.3390
6.7435 8.6713 2.0342
0.7243 12.6157 2.3390
-1.1805 12.5811 2.3390
2.6126 12.3629 2.3390
-3.0583 12.2600 2.3390
-6.1352 10.0907 2.1866
-4.8662 11.6597 2.3390
-8.8537 7.8076 2.1866
-7.5810 9.0520 2.1866
-11.5192 5.1562 2.3390
-12.1598 3.3647 2.3390
-10.6160 6.8313 2.3390
-12.6023 -0.4019 2.3390
-12.5235 1.4979 2.3390
-11.9056 -4.1275 2.3390
-11.1465 -5.8689 2.3390
-12.3947 -2.2913 2.3390
-8.3138 -8.3320 2.1866
-6.9651 -9.4853 2.1866
-5.7559 -10.9902 2.3056
-10.1346 -7.4760 2.3390
-2.2602 -12.3788 2.3390
1.5221 -12.4908 2.3390
-0.3733 -12.5775 2.3390
3.3831 -12.1207 2.3390
4.8309 -10.7279 2.1866
-4.0961 -11.8991 2.3390
-11.7950 -0.8513 2.3390
-11.5295 -2.6142 2.3390
-7.7268 -3.0316 1.6427
-10.2254 -5.9202 2.3390
-8.6162 -6.9071 2.1866
-7.4781 -8.1223 2.1866
-6.1707 -9.1526 2.1866
-5.0530 -10.6701 2.3390
-3.3909 -11.3074 2.3390
-1.6521 -11.6879 2.3390
0.1241 -11.8032 2.3390
1.8974 -11.6507 2.3390
3.6279 -11.2338 2.3390
4.9325 -9.8737 2.1866
6.3620 -9.0212 2.1866
6.7178 -6.9954 1.9208
6.6366 -5.0947 1.6566
6.7201 -3.7044 1.5190
6.7218 -2.4755 1.4175
6.7233 -1.3765 1.3577
6.6436 -0.3393 1.3157
6.7287 0.6744 1.3370
6.7300 1.7242 1.3732
6.7315 2.8597 1.4452
6.7331 4.1525 1.5627
6.7399 5.7178 1.7456
6.7423 7.7442 2.0275
5.9342 9.3517 2.1866
4.6985 10.6778 2.3028
3.0880 11.4410 2.3390
1.3330 11.7759 2.3390
-0.4525 11.8425 2.3390
-2.2276 11.6395 2.3390
-3.9518 11.1714 2.3390
-5.5857 10.4491 2.3390
-6.6298 8.8708 2.1866
-7.8865 7.7717 2.1866
-8.9632 6.4962 2.1866
-10.5209 5.4271 2.3390
-11.2141 3.7827 2.3390
-11.6520 2.0531 2.3390
-11.8247 0.2779 2.3390
-11.3659 -3.2479 2.3390
-11.7285 -1.5026 2.3390
-10.7454 -4.9185 2.3390
-8.2200 -7.3728 2.1866
-9.8811 -6.4765 2.3390
-5.7684 -9.6707 2.2307
-4.4545 -10.9329 2.3390
-7.0166 -8.5231 2.1866
-1.0026 -11.7613 2.3390
-2.7598 -11.4774 2.3390
2.5394 -11.5281 2.3390
4.2442 -11.0162 2.3390
0.7771 -11.7783 2.3390
6.8519 -8.6558 2.1866
5.4717 -9.5861 2.1866
6.7189 -4.5902 1.6110
6.7188 -6.2626 1.8189
6.7208 -3.2334 1.4762
6.7224 -2.0611 1.3913
6.6413 0.0288 1.3134
6.7238 -0.9927 1.3445
6.7292 1.0532 1.3465
6.7306 2.1276 1.3951
6.7320 3.3110 1.4823
6.7407 6.3926 1.8346
6.7983 8.7418 2.1865
5.4079 9.6663 2.1866
4.1651 11.0936 2.3390
2.4502 11.5946 2.3390
6.7337 4.6863 1.6205
0.6793 11.8317 2.3390
-2.8682 11.4981 2.3390
-4.5638 10.9352 2.3390
-5.7743 9.4972 2.1943
-7.1101 8.4897 2.1866
-8.3038 7.3227 2.1866
-9.9568 6.4072 2.3390
-10.8041 4.8361 2.3390
-1.1071 11.7992 2.3390
-11.7464 1.4050 2.3390
-11.8206 -0.3769 2.3390
-11.6261 -2.1492 2.3390
-11.4051 3.1560 2.3390
-11.1676 -3.8716 2.3390
-8.8873 -6.5558 2.1866
-10.4557 -5.5051 2.3390
-6.5337 -8.8978 2.1866
-5.4777 -10.4589 2.3390
-2.1203 -11.6123 2.3390
-3.8425 -11.1623 2.3390
-7.7988 -7.8158 2.1866
1.4278 -11.7174 2.3390
-0.3502 -11.7987 2.3390
3.1736 -11.3702 2.3390
4.7044 -10.4469 2.2699
-11.1031 -0.8014 2.3390
-10.8533 -2.4609 2.3390
-7.7069 -3.0238 1.7405
-8.9988 -5.2101 2.1866
-8.1113 -6.5023 2.1866
-7.0400 -7.6464 2.1866
-5.8093 -8.6165 2.1866
-4.7570 -10.0451 2.3390
-3.1923 -10.6451 2.3390
-1.5553 -11.0034 2.3390
0.1168 -11.1120 2.3390
1.7863 -10.9684 2.3390
3.4154 -10.5758 2.3390
4.7137 -9.4357 2.2196
5.9893 -8.4927 2.1866
6.7177 -6.9953 2.0403
6.6366 -5.0946 1.7597
6.7201 -3.7043 1.6135
6.7217 -2.4755 1.5058
6.7232 -1.3765 1.4423
6.6436 -0.3393 1.3976
6.7286 0.6744 1.4204
6.7300 1.7242 1.4588
6.7314 2.8597 1.5353
6.7330 4.1525 1.6602
6.7398 5.7178 1.8545
6.8441 7.8612 2.1866
5.5855 8.8023 2.1866
4.4919 10.2084 2.3390
2.9065 10.7687 2.3390
1.2546 11.0838 2.3390
-0.4259 11.1466 2.3390
-2.0967 10.9555 2.3390
-3.7196 10.5150 2.3390
-5.2575 9.8351 2.3390
-6.2403 8.3496 2.1866
-7.4233 7.3152 2.1866
-8.4368 6.1147 2.1866
-9.9032 5.1085 2.3390
-10.5559 3.5607 2.3390
-10.9682 1.9327 2.3390
-11.1309 0.2616 2.3390
-11.0406 -1.4144 2.3390
-10.6995 -3.0574 2.3390
-10.1154 -4.6301 2.3390
-8.6959 -5.6996 2.1866
-7.7384 -6.9407 2.1866
-6.6056 -8.0237 2.1866
-5.6942 -9.5463 2.3390
-4.1936 -10.2926 2.3390
-2.5982 -10.8052 2.3390
-0.9439 -11.0725 2.3390
0.7316 -11.0885 2.3390
2.3907 -10.8529 2.3390
3.9956 -10.3710 2.3390
5.1512 -9.0245 2.1866
6.4506 -8.1487 2.1866
6.7187 -6.2625 1.9320
6.7189 -4.5901 1.7113
6.7207 -3.2334 1.5681
6.7223 -2.0610 1.4779
6.7237 -0.9926 1.4282
6.6413 0.0288 1.3952
6.7291 1.0532 1.4305
6.7305 2.1276 1.4821
6.7320 3.3110 1.5747
6.7337 4.6863 1.7216
6.7406 6.3926 1.9491
6.3991 8.2285 2.1866
5.0901 9.0984 2.1866
3.9203 10.4417 2.3390
2.3062 10.9133 2.3390
0.6394 11.1363 2.3390
-1.0421 11.1058 2.3390
-2.6997 10.8224 2.3390
-4.2956 10.2926 2.3390
-5.7529 9.4621 2.3227
-6.6924 7.9910 2.1866
-7.8161 6.8927 2.1866
-8.7615 5.6380 2.1866
-10.1697 4.5523 2.3390
-10.7357 2.9708 2.3390
-11.0572 1.3226 2.3390
-11.1272 -0.3547 2.3390
-10.9443 -2.0231 2.3390
-10.5128 -3.6445 2.3390
-9.2015 -4.8449 2.1866
-8.3664 -6.1716 2.1866
-7.3418 -7.3578 2.1866
-6.1510 -8.3765 2.1866
-5.1569 -9.8462 2.3390
-3.6174 -10.5085 2.3390
-1.9961 -10.9322 2.3390
-0.3297 -11.1077 2.3390
1.3442 -11.0312 2.3390
2.9877 -10.7043 2.3390
4.5637 -10.1344 2.3390
-10.4850 -0.7567 2.3390
-10.2493 -2.3239 2.3390
-7.6871 -3.0159 1.8383
-8.4982 -4.9202 2.1866
-7.6602 -6.1406 2.1866
-6.6485 -7.2211 2.1866
-5.7577 -8.5399 2.2948
-4.4926 -9.4867 2.3390
-3.0148 -10.0534 2.3390
-1.4689 -10.3918 2.3390
0.1103 -10.4943 2.3390
1.6870 -10.3587 2.3390
3.2256 -9.9879 2.3390
4.6911 -9.3903 2.3390
5.6563 -8.0205 2.1866
6.7991 -7.0801 2.1866
6.6365 -5.0946 1.8633
6.7200 -3.7042 1.7085
6.7217 -2.4754 1.5945
6.7232 -1.3764 1.5273
6.6435 -0.3392 1.4800
6.7286 0.6744 1.5041
6.7299 1.7243 1.5449
6.7314 2.8597 1.6259
6.7330 4.1525 1.7582
6.7397 5.7178 1.9640
6.4626 7.4230 2.1866
5.2741 8.3116 2.1866
4.2414 9.6392 2.3390
2.7444 10.1682 2.3390
1.1846 10.4657 2.3390
-0.4022 10.5250 2.3390
-1.9798 10.3445 2.3390
-3.5122 9.9286 2.3390
-4.9643 9.2868 2.3390
-5.8924 7.8842 2.1866
-7.0095 6.9075 2.1866
-7.9666 5.7740 2.1866
-8.7421 4.5096 2.1866
-9.9678 3.3624 2.3390
-10.3573 1.8251 2.3390
-10.4260 -1.3357 2.3390
-10.5112 0.2471 2.3390
-10.1040 -2.8873 2.3390
-8.9302 -4.0876 2.1866
-7.3080 -6.5547 2.1866
-6.2383 -7.5775 2.1866
-8.2122 -5.3825 2.1866
-3.9605 -9.7204 2.3390
-5.3776 -9.0155 2.3390
-0.8915 -10.4570 2.3390
0.6910 -10.4722 2.3390
2.2578 -10.2496 2.3390
-2.4537 -10.2045 2.3390
4.8648 -8.5228 2.1866
3.7735 -9.7944 2.3390
6.0919 -7.6956 2.1866
6.7187 -6.2624 2.0458
6.7188 -4.5900 1.8121
6.7207 -3.2333 1.6605
6.7222 -2.0610 1.5650
6.7237 -0.9926 1.5124
6.7291 1.0533 1.5148
6.6412 0.0289 1.4775
6.7319 3.3110 1.6676
6.7304 2.1276 1.5695
6.7336 4.6863 1.8232
6.7405 6.3926 2.0641
4.8063 8.5911 2.1866
6.0423 7.7698 2.1866
3.7017 9.8595 2.3390
0.6037 10.5153 2.3390
2.1776 10.3047 2.3390
-2.5491 10.2189 2.3390
-0.9839 10.4865 2.3390
-5.4703 8.9974 2.3390
-6.3193 7.5455 2.1866
-7.3804 6.5085 2.1866
-8.2732 5.3239 2.1866
-8.9774 4.0186 2.1866
-10.1377 2.8054 2.3390
-4.0560 9.7187 2.3390
-10.4414 1.2490 2.3390
-10.5077 -0.3349 2.3390
-9.9278 -3.4417 2.3390
-8.6896 -4.5751 2.1866
-7.9011 -5.8283 2.1866
-10.3351 -1.9104 2.3390
-6.9336 -6.9486 2.1866
-4.8702 -9.2988 2.3390
-3.4163 -9.9243 2.3390
-0.3114 -10.4903 2.3390
-1.8852 -10.3245 2.3390
1.2695 -10.4180 2.3390
2.8217 -10.1092 2.3390
4.3100 -9.5709 2.3390
-5.8090 -7.9107 2.1866
-9.9293 -0.7165 2.3390
-9.0738 -2.0573 2.1866
-7.6672 -3.0081 1.9361
-8.0482 -4.6596 2.1866
-7.2546 -5.8154 2.1866
-6.2965 -6.8388 2.1866
-5.5580 -8.2437 2.3390
-4.2548 -8.9845 2.3390
-2.8553 -9.5213 2.3390
-1.3911 -9.8418 2.3390
0.1045 -9.9389 2.3390
1.5977 -9.8105 2.3390
3.0549 -9.4593 2.3390
4.4428 -8.8933 2.3390
5.3569 -7.5959 2.1866
6.4392 -6.7052 2.1866
6.6364 -5.0945 1.9675
6.7200 -3.7042 1.8041
6.7216 -2.4754 1.6837
6.7231 -1.3764 1.6127
6.6434 -0.3392 1.5628
6.7285 0.6744 1.5883
6.7299 1.7243 1.6314
6.7313 2.8597 1.7169
6.7329 4.1525 1.8566
7.1060 6.0285 2.1867
6.1196 7.0292 2.1866
4.9941 7.8705 2.1866
4.0163 9.1276 2.3390
2.5987 9.6284 2.3390
1.1217 9.9101 2.3390
-0.3808 9.9662 2.3390
-1.8747 9.7954 2.3390
-3.3257 9.4016 2.3390
-5.7636 7.7119 2.2587
-6.6375 6.5410 2.1866
-7.5439 5.4677 2.1866
-8.2784 4.2705 2.1866
-8.8242 2.9766 2.1866
-4.7008 8.7939 2.3390
-9.9540 0.2340 2.3390
-9.8735 -1.2649 2.3390
-8.9453 -2.5561 2.1866
-8.4572 -3.8710 2.1866
-7.7773 -5.0974 2.1866
-6.9211 -6.2076 2.1866
-5.9080 -7.1763 2.1866
-5.0930 -8.5382 2.3390
-3.7509 -9.2059 2.3390
-2.3239 -9.6645 2.3390
-0.8443 -9.9036 2.3390
0.6544 -9.9180 2.3390
2.1383 -9.7072 2.3390
-9.1691 1.6158 2.1866
4.7108 -8.2528 2.2357
6.8008 -6.3390 2.1866
5.7694 -7.2882 2.1866
3.5738 -9.2760 2.3390
6.7187 -4.5899 1.9134
6.7206 -3.2332 1.7533
6.6412 0.0289 1.5601
6.7222 -2.0609 1.6525
6.7290 1.0533 1.5996
6.7236 -0.9926 1.5970
6.7304 2.1277 1.6574
6.7319 3.3110 1.7610
6.7335 4.6863 1.9253
4.7062 8.4122 2.2611
2.0620 9.7577 2.3390
0.5717 9.9571 2.3390
5.7216 7.3575 2.1866
-2.4138 9.6765 2.3390
3.5052 9.3361 2.3390
-3.8407 9.2029 2.3390
-5.9839 7.1451 2.1866
-6.9888 6.1632 2.1866
-5.1800 8.5199 2.3390
-7.8343 5.0415 2.1866
-8.9746 2.4835 2.1866
-9.8879 1.1828 2.3390
-0.9317 9.9298 2.3390
-9.9508 -0.3171 2.3390
-8.5013 3.8055 2.1866
-9.1498 -1.6913 2.1866
-8.7893 -3.0469 2.1866
-8.2293 -4.3328 2.1866
-6.5665 -6.5807 2.1866
6.7615 6.4126 2.1866
-7.4827 -5.5196 2.1866
-4.6124 -8.8066 2.3390
-0.2949 -9.9351 2.3390
1.2023 -9.8666 2.3390
2.6723 -9.5742 2.3390
-5.7587 -7.8422 2.2888
-3.2355 -9.3991 2.3390
-1.7854 -9.7781 2.3390
4.0819 -9.0643 2.3390
-8.8127 -0.6359 2.1866
-8.6149 -1.9532 2.1866
-7.6473 -3.0003 2.0339
-7.6412 -4.4239 2.1866
-6.8878 -5.5214 2.1866
-5.9783 -6.4931 2.1866
-5.2771 -7.8270 2.3390
-4.0398 -8.5305 2.3390
-2.7110 -9.0401 2.3390
-1.3208 -9.3445 2.3390
0.0992 -9.4367 2.3390
1.5170 -9.3147 2.3390
2.9005 -8.9813 2.3390
4.2183 -8.4439 2.3390
5.0862 -7.2119 2.1866
6.1137 -6.3662 2.1866
6.6364 -5.0944 2.0722
6.7199 -3.7041 1.9001
6.7216 -2.4753 1.7734
6.7231 -1.3763 1.6986
6.6434 -0.3392 1.6461
6.7285 0.6745 1.6730
6.7298 1.7243 1.7183
6.7312 2.8597 1.8085
6.7328 4.1525 1.9557
6.7456 5.7229 2.1866
5.8096 6.6731 2.1866
4.7411 7.4717 2.1866
3.8128 8.6651 2.3390
2.4670 9.1405 2.3390
1.0649 9.4079 2.3390
-0.3615 9.4612 2.3390
-1.7797 9.2990 2.3390
-3.1572 8.9252 2.3390
-4.4626 8.3483 2.3390
-6.3013 6.2097 2.1866
-7.1619 5.1908 2.1866
-5.6662 7.5816 2.3390
-8.3775 2.8260 2.1866
-8.7050 1.5340 2.1866
-8.8346 0.2078 2.1866
-7.8592 4.0543 2.1866
-8.7632 -1.1226 2.1866
-8.0296 -3.6752 2.1866
-8.4928 -2.4268 2.1866
-7.3841 -4.8397 2.1866
-6.5712 -5.8937 2.1866
-5.7656 -7.0033 2.2475
-3.5614 -8.7407 2.3390
-2.2065 -9.1761 2.3390
-4.8356 -8.1067 2.3390
-0.8016 -9.4032 2.3390
0.6213 -9.4168 2.3390
2.0303 -9.2167 2.3390
3.3932 -8.8073 2.3390
6.4571 -6.0185 2.1866
4.6794 -8.1978 2.3390
5.4778 -6.9198 2.1866
6.7205 -3.2332 1.8467
6.7236 -0.9925 1.6821
