ply
format ascii 1.0
element vertex 2116
property float32 x
property float32 y
property float32 z
end_header
-21.3212 19.9917 -3.6535
-21.3253 14.6988 -3.2371
-21.3338 10.4040 -2.9660
-21.3360 3.3174 -2.6972
-21.3353 0.0962 -2.6646
-7.1173 -1.0410 -0.8981
-21.3315 6.6921 -2.7932
-21.3331 -10.1666 -2.9496
-7.7206 -2.3459 -1.0073
-21.3362 -14.4242 -3.2140
-8.3750 -36.1557 -4.6289
-7.4605 -18.8226 -2.5255
-21.3529 -19.6625 -3.6218
11.0542 -13.9293 -2.2185
15.0945 -10.3376 -2.2831
21.9910 -3.3520 -2.7775
23.1907 -11.2238 -3.2157
22.0404 -0.0335 -2.7526
22.0901 3.2985 -2.7899
20.4834 6.2907 -2.6771
12.5219 -11.6708 -2.1358
20.0817 9.6440 -2.7838
20.4109 13.8878 -3.0855
-7.4735 32.7079 -4.1956
18.8425 32.5984 -4.7077
26.1234 -33.3301 -4.7749
11.9391 -11.2634 -1.8510
15.1657 -10.5217 -2.0819
23.0917 -11.3488 -2.9026
33.0380 -5.2406 -3.7753
22.2172 -0.1682 -2.5081
22.2672 3.1873 -2.5398
20.4814 6.1547 -2.4152
20.5344 9.7089 -2.5657
20.1396 13.5257 -2.7409
23.7533 29.3798 -4.2699
17.2419 29.4171 -3.8541
-7.1910 32.3728 -3.7490
-7.7315 13.5638 -1.7647
-21.3253 14.6988 -2.9263
-21.3212 19.9918 -3.3028
-21.3315 6.6921 -2.5249
-21.3334 10.4038 -2.6811
-21.3354 0.0962 -2.4085
-21.3359 3.3174 -2.4381
-7.0058 -1.0247 -0.7991
-21.3334 -10.1667 -2.6661
-21.3367 -14.4245 -2.9050
-7.6524 -2.3251 -0.9025
-8.4324 -36.4031 -4.2122
-7.5370 -19.0155 -2.3059
-21.3526 -19.6621 -3.2734
26.4545 -33.3350 -4.7985
15.2412 -10.4380 -2.0836
23.0942 -11.1770 -2.8944
22.2192 -0.0337 -2.5082
22.2693 3.3253 -2.5423
11.9988 -11.1833 -1.8497
20.5367 9.8625 -2.5734
20.1423 13.7051 -2.7525
15.0142 -2.2886 -1.7141
23.7070 29.6882 -4.2938
20.4834 6.2907 -2.4199
17.1830 29.7275 -3.8811
-7.3904 32.3444 -3.7508
26.1234 -33.3301 -4.2681
11.6802 -11.0191 -1.6187
15.3139 -10.6245 -1.8792
23.0917 -11.3488 -2.5947
33.8460 -10.7320 -3.5815
33.5314 -5.3188 -3.4254
22.2172 -0.1681 -2.2422
22.2672 3.1874 -2.2706
20.4814 6.1548 -2.1593
20.5344 9.7090 -2.2939
20.6749 13.8853 -2.5157
24.0731 29.7754 -3.8691
17.5098 29.8742 -3.4995
-7.1818 32.3315 -3.3478
-7.7860 13.6596 -1.5890
-21.3212 19.9918 -2.9530
-21.3252 14.6988 -2.6163
-21.3329 10.4036 -2.3970
-21.3358 3.3174 -2.1796
-21.3316 6.6922 -2.2573
-6.8981 -1.0089 -0.7034
-7.5856 -2.3048 -0.7997
-21.3372 -14.4248 -2.5968
-21.3522 -19.6618 -2.9260
-21.3356 0.0962 -2.1532
-7.5618 -19.0780 -2.0679
-7.9513 -34.3264 -3.5502
-21.3337 -10.1668 -2.3833
22.9336 -39.9539 -4.6425
13.2989 -16.7577 -2.1562
15.3903 -10.5401 -1.8807
11.9940 -11.1787 -1.6528
23.0942 -11.1770 -2.5874
22.2192 -0.0337 -2.2423
22.2693 3.3253 -2.2728
33.8704 -10.5145 -3.5773
15.0112 -2.2880 -1.5320
20.6777 14.0694 -2.5263
20.4834 6.2908 -2.1635
23.7800 29.7798 -3.8509
17.2710 29.8799 -3.4879
20.5367 9.8626 -2.3008
-7.3619 32.2196 -3.3407
11.4763 -14.6422 -1.6529
11.4329 -10.7858 -1.3967
23.0227 -15.9727 -2.4906
23.0917 -11.3487 -2.2875
33.3658 -10.5797 -3.1128
33.6578 -5.3388 -3.0314
22.2172 -0.1681 -1.9769
20.4814 6.1548 -1.9039
20.5344 9.7090 -2.0227
20.6749 13.8853 -2.2183
22.2672 3.1874 -2.0020
24.0730 29.7754 -3.4119
17.5096 29.8739 -3.0861
-8.4278 14.7856 -1.5168
-7.1458 32.1694 -2.9375
-21.3212 19.9919 -2.6040
-21.3252 14.6988 -2.3070
-21.3325 10.4034 -2.1136
-21.3357 3.3175 -1.9218
-21.3358 0.0963 -1.8985
-21.3386 -3.1210 -1.9184
-21.3317 6.6923 -1.9904
-7.4766 -2.2717 -0.6949
-21.3341 -10.1669 -2.1011
-21.3377 -14.4251 -2.2894
-21.3519 -19.6614 -2.5794
-7.4914 -18.9005 -1.8059
-8.2919 -35.7966 -3.2635
11.8633 -14.9487 -1.6956
21.3447 -37.1857 -3.8089
11.9065 -11.0971 -1.4464
23.0258 -15.7692 -2.4806
23.0942 -11.1769 -2.2811
33.3904 -10.3655 -3.1092
22.2192 -0.0336 -1.9770
22.2693 3.3254 -2.0040
20.5367 9.8626 -2.0288
20.4834 6.2908 -1.9077
20.6777 14.0695 -2.2277
23.7800 29.7798 -3.3959
15.0081 -2.2876 -1.3504
17.2695 29.8774 -3.0756
-7.3357 32.1053 -2.9357
10.9422 -13.9608 -1.3646
12.1545 -11.4665 -1.2858
23.0227 -15.9726 -2.1568
23.0917 -11.3487 -1.9810
32.3666 -5.1339 -2.5246
22.2172 -0.1681 -1.7122
22.2672 3.1875 -1.7340
20.4814 6.1548 -1.6491
20.5344 9.7091 -1.7521
20.6749 13.8854 -1.9216
24.0730 29.7754 -2.9557
17.5092 29.8733 -2.6734
16.4565 41.1538 -3.4225
-7.1554 32.2126 -2.5483
-8.2323 14.4425 -1.2835
-21.3212 19.9920 -2.2558
-21.3251 14.6989 -1.9984
-21.3320 10.4033 -1.8308
-21.3317 6.6923 -1.7240
-21.3357 3.3175 -1.6645
-21.3359 0.0963 -1.6443
-21.3385 -3.1209 -1.6614
-7.9183 -2.4059 -0.6374
-21.3344 -10.1671 -1.8196
-21.3382 -14.4254 -1.9826
-21.3516 -19.6611 -2.2336
-7.4226 -18.7267 -1.5493
-8.2359 -35.5549 -2.8067
20.1177 -35.0481 -3.1085
11.2976 -14.2359 -1.3982
11.6516 -10.8595 -1.2256
23.0258 -15.7691 -2.1481
23.0942 -11.1769 -1.9754
15.0051 -2.2871 -1.1693
22.2192 -0.0336 -1.7123
22.2693 3.3254 -1.7357
20.4834 6.2909 -1.6524
20.5367 9.8627 -1.7573
20.6777 14.0695 -1.9297
23.7799 29.7798 -2.9418
17.2692 29.8769 -2.6644
-7.3607 32.2145 -2.5519
11.6538 -14.8686 -1.2287
11.9947 -11.3157 -1.0728
23.0227 -15.9726 -1.8235
23.0917 -11.3486 -1.6750
33.5874 -5.3275 -2.2154
22.2172 -0.1680 -1.4479
22.2425 3.1840 -1.4649
20.4814 6.1549 -1.3948
20.1471 9.5260 -1.4540
20.4398 13.7275 -1.6069
17.5092 29.8733 -2.2616
24.1126 29.8245 -2.5045
-7.1246 32.0741 -2.1466
-8.1739 14.3401 -1.0781
-21.3212 19.9920 -1.9082
-21.3316 10.4031 -1.5485
-21.3251 14.6989 -1.6904
-21.3318 6.6924 -1.4582
-21.3361 0.0964 -1.3906
-21.3356 3.3175 -1.4078
-7.8686 -2.3908 -0.5356
-21.3347 -10.1672 -1.5386
-21.3387 -14.4257 -1.6763
-21.3513 -19.6607 -1.8883
-21.3384 -3.1209 -1.4050
-8.2411 -35.5771 -2.3741
-7.7395 -19.5262 -1.3657
21.1474 -36.8419 -2.7624
11.4077 -10.6322 -1.0145
26.4548 -33.3350 -2.7680
23.0942 -11.1768 -1.6702
15.0020 -2.2866 -0.9886
22.2446 3.3218 -1.4663
20.4834 6.2909 -1.3975
20.1568 9.6803 -1.4589
20.4543 13.9176 -1.6147
23.0258 -15.7691 -1.8162
22.2192 -0.0336 -1.4481
17.2692 29.8769 -2.2540
23.8191 29.8289 -2.4927
-7.3321 32.0895 -2.1506
11.4321 -14.5858 -0.9853
11.8393 -11.1691 -0.8656
22.0163 -15.2743 -1.4256
23.0917 -11.3486 -1.3694
22.2172 -0.1680 -1.1841
34.7434 -5.5108 -1.8740
6.6422 0.9508 -0.3578
20.4814 6.1549 -1.1408
19.7070 9.3179 -1.1634
19.9476 13.3970 -1.2829
19.1292 23.6607 -1.6256
17.5092 29.8734 -1.8505
-6.9454 31.2675 -1.7123
-8.1164 14.2393 -0.8759
-21.3212 19.9921 -1.5611
-21.3311 10.4029 -1.2666
-21.3251 14.6989 -1.3829
-21.3318 6.6924 -1.1927
-21.3355 3.3175 -1.1514
-21.3382 -3.1208 -1.1489
-7.6939 -2.3377 -0.4282
-21.3362 0.0964 -1.1372
-21.3350 -10.1673 -1.2580
-21.3393 -14.4260 -1.3705
-7.4862 -18.8871 -1.0797
-8.3161 -35.9006 -1.9581
-21.3510 -19.6604 -1.5437
21.1474 -36.8418 -2.2580
11.5036 -14.4953 -0.9839
11.9811 -11.1666 -0.8711
23.0942 -11.1768 -1.3656
22.0082 -15.0722 -1.4192
22.2192 -0.0335 -1.1842
14.9990 -2.2861 -0.8083
6.6423 0.9919 -0.3581
19.7150 9.4681 -1.1672
20.4834 6.2909 -1.1431
18.8847 23.6496 -1.6169
17.2692 29.8771 -1.8442
19.9594 13.5809 -1.2889
-7.3023 31.9590 -1.7525
11.3256 -14.4497 -0.7584
11.6880 -11.0263 -0.6640
21.1949 -14.7044 -1.0665
23.0917 -11.3485 -1.0643
6.7221 -2.1314 -0.2919
6.7234 -1.0664 -0.2819
6.7247 -0.0508 -0.2787
6.6422 0.9508 -0.2782
6.7301 2.0225 -0.2915
19.2862 9.1190 -0.8855
18.5875 22.9908 -1.2289
19.4791 13.0824 -0.9745
17.5096 29.8742 -1.4398
-7.1557 32.2141 -1.3728
-8.0599 14.1402 -0.6768
-21.3212 19.9921 -1.2145
-21.3307 10.4028 -0.9851
-21.3319 6.6925 -0.9276
-21.3250 14.6989 -1.0757
-21.3364 0.0965 -0.8842
-21.3354 3.3176 -0.8953
-21.3381 -3.1207 -0.8931
-7.5928 -2.3069 -0.3285
-21.3354 -10.1674 -0.9777
-21.3398 -14.4263 -1.0650
-21.3507 -19.6600 -1.1994
-7.6786 -19.3725 -0.8603
-8.2539 -35.6321 -1.5097
21.1481 -36.8428 -1.7542
21.1977 -14.5171 -1.0622
23.0942 -11.1767 -1.0613
11.3519 -14.3041 -0.7543
11.8271 -11.0230 -0.6681
6.7221 -2.0867 -0.2913
6.7235 -1.0247 -0.2817
6.7247 -0.0101 -0.2787
6.7301 2.0670 -0.2921
6.6422 0.9919 -0.2785
19.4885 13.2605 -0.9790
18.3527 22.9834 -1.2226
17.2708 29.8799 -1.4351
19.2927 9.2654 -0.8884
-7.2057 31.5366 -1.3457
7.1630 -9.1389 -0.3421
6.7189 -6.3385 -0.2723
6.7210 -4.6628 -0.2413
6.7205 -3.3028 -0.2210
6.7220 -2.1313 -0.2083
6.7233 -1.0664 -0.2013
6.7246 -0.0508 -0.1990
6.6421 0.9508 -0.1987
6.7300 2.0225 -0.2083
6.7315 3.1828 -0.2209
6.7332 4.5221 -0.2407
6.6563 6.0920 -0.2680
18.0761 22.3583 -0.8545
17.5096 29.8742 -1.0296
-7.1234 32.0688 -0.9774
-8.0042 14.0425 -0.4806
-21.3212 19.9922 -0.8682
-21.3250 14.6989 -0.7688
-21.3302 10.4026 -0.7040
-21.3320 6.6926 -0.6627
-21.3353 3.3176 -0.6395
-21.3365 0.0965 -0.6314
-21.3379 -3.1207 -0.6376
-7.5502 -2.2940 -0.2331
-21.3357 -10.1675 -0.6977
-21.3403 -14.4266 -0.7599
-21.3503 -19.6597 -0.8556
-7.6497 -19.2995 -0.6111
-8.2912 -35.7930 -1.0813
21.1494 -36.8451 -1.2510
11.2042 -14.1181 -0.5310
6.7190 -6.2621 -0.2707
6.7211 -4.6028 -0.2403
6.7206 -3.2525 -0.2204
6.7221 -2.0867 -0.2079
6.7234 -1.0247 -0.2011
6.7247 -0.0101 -0.1990
6.6422 0.9919 -0.1989
6.7301 2.0670 -0.2087
6.7316 3.2329 -0.2215
6.7333 4.5815 -0.2417
6.6515 6.1620 -0.2693
17.8503 22.3543 -0.8502
17.2708 29.8799 -1.0262
-7.3218 32.0445 -0.9779
6.7160 -8.5686 -0.1918
6.7188 -6.3384 -0.1629
6.7209 -4.6627 -0.1444
6.7205 -3.3028 -0.1324
6.7220 -2.1313 -0.1248
6.7233 -1.0664 -0.1207
6.7246 -0.0508 -0.1194
6.6421 0.9508 -0.1193
6.7300 2.0225 -0.1251
6.7314 3.1828 -0.1327
6.7331 4.5221 -0.1447
6.6562 6.0919 -0.1612
6.7428 8.3402 -0.1918
6.6625 11.3672 -0.2358
6.6692 16.6782 -0.3216
-7.0890 31.9142 -0.5856
-7.9493 13.9463 -0.2873
-21.3212 19.9922 -0.5221
-21.3249 14.6989 -0.4622
-21.3298 10.4024 -0.4230
-21.3320 6.6926 -0.3980
-21.3352 3.3176 -0.3838
-21.3367 0.0965 -0.3788
-7.5082 -2.2812 -0.1389
-21.3378 -3.1206 -0.3823
-21.3408 -14.4269 -0.4549
-21.3500 -19.6593 -0.5119
-21.3360 -10.1676 -0.4179
-7.5291 -18.9954 -0.3596
-8.4386 -36.4293 -0.6578
6.7038 -11.6788 -0.2371
6.7162 -8.4627 -0.1904
6.7189 -6.2621 -0.1620
6.7205 -3.2524 -0.1320
6.7220 -2.0866 -0.1246
6.7246 -0.0101 -0.1194
6.7233 -1.0247 -0.1206
6.7210 -4.6028 -0.1438
6.6421 0.9919 -0.1194
6.7300 2.0670 -0.1253
6.7332 4.5815 -0.1453
6.6514 6.1619 -0.1620
6.7430 8.4444 -0.1932
6.6627 11.5269 -0.2382
6.6696 16.9765 -0.3266
6.7315 3.2328 -0.1331
-7.3327 32.0924 -0.5897
6.7159 -8.5684 -0.0630
6.7188 -6.3383 -0.0536
6.7209 -4.6627 -0.0476
6.7204 -3.3027 -0.0438
6.7219 -2.1313 -0.0414
6.7232 -1.0664 -0.0401
6.7245 -0.0508 -0.0398
6.6420 0.9508 -0.0399
6.7299 2.0225 -0.0419
6.7314 3.1828 -0.0446
6.7331 4.5220 -0.0487
6.7428 8.3401 -0.0648
6.6624 11.3671 -0.0798
6.6561 6.0919 -0.0544
6.7697 28.8275 -0.1800
6.6691 16.6779 -0.1090
-7.2211 32.5089 -0.2024
-24.3742 42.7621 -0.2983
-21.3212 19.9923 -0.1762
-21.3249 14.6989 -0.1557
-21.3321 6.6927 -0.1334
-21.3351 3.3177 -0.1283
-21.3368 0.0966 -0.1263
-21.3377 -3.1206 -0.1271
-21.3293 10.4023 -0.1421
-21.3363 -10.1677 -0.1382
-21.3413 -14.4272 -0.1500
-7.4667 -2.2686 -0.0458
-7.6388 -19.2721 -0.1195
-8.3840 -36.1935 -0.2138
6.6917 -29.7005 -0.1752
-21.3497 -19.6590 -0.1685
6.7119 -17.2359 -0.1066
6.7037 -11.6786 -0.0777
6.7161 -8.4626 -0.0625
6.7210 -4.6027 -0.0474
6.7189 -6.2620 -0.0533
6.7205 -3.2524 -0.0436
6.7220 -2.0866 -0.0413
6.7233 -1.0247 -0.0401
6.7246 -0.0101 -0.0398
6.7314 3.2328 -0.0447
6.7331 4.5815 -0.0489
6.7300 2.0670 -0.0420
6.6514 6.1619 -0.0547
6.7429 8.4443 -0.0653
6.6626 11.5268 -0.0807
6.6421 0.9919 -0.0399
6.7707 29.6367 -0.1848
6.6695 16.9762 -0.1107
-7.2696 31.8163 -0.1983
6.7159 -8.5683 0.0658
6.7187 -6.3382 0.0557
6.7208 -4.6626 0.0492
6.7204 -3.3027 0.0449
6.7218 -2.1313 0.0421
6.7232 -1.0663 0.0405
6.7245 -0.0508 0.0398
6.6420 0.9509 0.0395
6.7299 2.0225 0.0412
6.7313 3.1828 0.0435
6.7330 4.5220 0.0472
6.6561 6.0918 0.0524
6.7427 8.3400 0.0621
6.6623 11.3669 0.0761
6.6690 16.6776 0.1035
6.7695 28.8266 0.1704
-24.3742 42.7621 0.2841
-7.1703 32.2801 0.1903
-21.3212 19.9924 0.1696
-21.3248 14.6990 0.1508
-21.3289 10.4021 0.1387
-21.3350 3.3177 0.1272
-21.3370 0.0966 0.1262
-21.3375 -3.1205 0.1281
-21.3321 6.6928 0.1312
-7.4256 -2.2561 0.0463
-21.3418 -14.4275 0.1548
-21.3494 -19.6586 0.1749
-21.3366 -10.1678 0.1415
6.7118 -17.2355 0.1123
6.7036 -11.6784 0.0816
6.7160 -8.4625 0.0653
6.6915 -29.6994 0.1850
6.7188 -6.2619 0.0554
6.7209 -4.6027 0.0490
6.7204 -3.2524 0.0447
6.7219 -2.0866 0.0420
6.7232 -1.0247 0.0404
6.7245 -0.0101 0.0398
6.7299 2.0670 0.0413
6.6420 0.9919 0.0396
6.7314 3.2328 0.0436
6.7428 8.4442 0.0625
6.7331 4.5814 0.0474
6.6513 6.1619 0.0526
6.6625 11.5266 0.0769
6.7705 29.6357 0.1750
6.6693 16.9758 0.1051
6.7158 -8.5682 0.1947
6.7186 -6.3381 0.1650
6.7208 -4.6626 0.1460
6.7203 -3.3026 0.1335
6.7218 -2.1312 0.1255
6.7231 -1.0663 0.1210
6.7244 -0.0508 0.1194
6.6419 0.9509 0.1189
6.7298 2.0225 0.1244
6.7313 3.1828 0.1316
6.7330 4.5220 0.1432
6.6560 6.0918 0.1592
6.6622 11.3668 0.2320
6.7426 8.3399 0.1890
6.6688 16.6773 0.3161
6.7692 28.8257 0.5208
-24.3741 42.7621 0.8666
-21.3212 19.9924 0.5155
-21.3284 10.4019 0.4195
-21.3322 6.6928 0.3958
-21.3349 3.3177 0.3827
-21.3372 0.0967 0.3787
-21.3248 14.6990 0.4573
-21.3374 -3.1204 0.3833
-7.3849 -2.2437 0.1374
-21.3370 -10.1679 0.4212
-21.3491 -19.6583 0.5184
-21.3423 -14.4277 0.4597
6.7116 -17.2351 0.3312
6.7035 -11.6782 0.2410
6.7159 -8.4624 0.1932
6.7187 -6.2618 0.1641
6.6912 -29.6983 0.5453
6.7204 -3.2523 0.1331
6.7218 -2.0866 0.1253
6.7208 -4.6026 0.1454
6.7232 -1.0246 0.1209
6.6420 0.9919 0.1190
6.7245 -0.0101 0.1194
6.7299 2.0670 0.1246
6.7313 3.2328 0.1320
6.7330 4.5814 0.1438
6.6512 6.1618 0.1599
6.6624 11.5265 0.2344
6.6692 16.9755 0.3209
6.7703 29.6347 0.5347
6.7427 8.4441 0.1904
6.7157 -8.5681 0.3235
6.7186 -6.3381 0.2744
6.7207 -4.6625 0.2428
6.7202 -3.3026 0.2221
6.7217 -2.1312 0.2090
6.7231 -1.0663 0.2016
6.7244 -0.0507 0.1990
6.6419 0.9509 0.1984
6.7297 2.0225 0.2076
6.7312 3.1828 0.2198
6.7329 4.5220 0.2392
6.6559 6.0917 0.2660
6.7425 8.3399 0.3160
6.6621 11.3666 0.3880
6.6687 16.6770 0.5287
6.7690 28.8248 0.8714
-29.3479 37.2110 1.3962
-24.3741 42.7621 1.4494
-21.3247 14.6990 0.7640
-21.3212 19.9925 0.8616
-21.3323 6.6929 0.6605
-21.3348 3.3177 0.6383
-21.3280 10.4017 0.7004
-21.3372 -3.1204 0.6386
-21.3373 0.0967 0.6314
-21.3357 -6.4822 0.6609
-21.3373 -10.1680 0.7011
-21.3488 -19.6580 0.8620
-21.3428 -14.4280 0.7647
6.7115 -17.2347 0.5501
6.7034 -11.6780 0.4004
6.6910 -29.6973 0.9057
6.7186 -6.2617 0.2728
6.7208 -4.6025 0.2418
6.7203 -3.2523 0.2215
6.7158 -8.4622 0.3211
6.7218 -2.0865 0.2086
6.7244 -0.0100 0.1990
6.7298 2.0670 0.2080
6.7231 -1.0246 0.2014
6.7330 4.5814 0.2402
6.6419 0.9919 0.1986
6.6512 6.1618 0.2673
6.7313 3.2328 0.2204
6.7427 8.4440 0.3184
6.6691 16.9752 0.5369
6.7700 29.6338 0.8946
6.6623 11.5263 0.3920
6.7156 -8.5679 0.4525
6.7185 -6.3380 0.3838
6.7206 -4.6624 0.3397
6.7202 -3.3025 0.3108
6.7217 -2.1312 0.2926
6.7230 -1.0663 0.2823
6.7243 -0.0507 0.2787
6.6418 0.9509 0.2779
6.7297 2.0225 0.2909
6.7312 3.1828 0.3080
6.7328 4.5219 0.3353
6.6559 6.0917 0.3729
6.7424 8.3398 0.4430
6.6620 11.3665 0.5441
6.6686 16.6767 0.7415
6.7688 28.8239 1.2221
-23.2333 40.7608 1.9374
-26.2227 33.2486 1.7492
-21.3212 19.9925 1.2079
-21.3247 14.6990 1.0708
-21.3275 10.4016 0.9815
-21.3323 6.6929 0.9253
-21.3347 3.3178 0.8941
-21.3375 0.0968 0.8842
-21.3371 -3.1203 0.8941
-21.3361 -6.4822 0.9251
-21.3376 -10.1681 0.9811
-21.3433 -14.4283 1.0699
-21.3485 -19.6576 1.2058
-28.2055 -35.1039 1.8718
-7.5718 -19.1028 0.8547
6.6908 -29.6962 1.2663
6.7114 -17.2343 0.7693
6.7033 -11.6778 0.5599
6.7158 -8.4621 0.4491
6.7186 -6.2616 0.3816
6.7207 -4.6025 0.3383
6.7203 -3.2522 0.3099
6.7217 -2.0865 0.2920
6.7231 -1.0246 0.2820
6.7244 -0.0100 0.2787
6.6419 0.9919 0.2781
6.7297 2.0670 0.2914
6.7312 3.2328 0.3089
6.7329 4.5813 0.3367
6.6511 6.1617 0.3747
6.7426 8.4440 0.4464
6.6622 11.5262 0.5498
6.6689 16.9749 0.7529
6.7698 29.6329 1.2547
6.7155 -8.5678 0.5816
6.7184 -6.3379 0.4933
6.7206 -4.6624 0.4367
6.7201 -3.3025 0.3996
6.7216 -2.1311 0.3762
6.7230 -1.0662 0.3630
6.7243 -0.0507 0.3584
6.6418 0.9509 0.3574
6.7296 2.0225 0.3742
6.7311 3.1827 0.3963
6.7328 4.5219 0.4315
6.6558 6.0916 0.4799
6.6619 11.3663 0.7003
6.7424 8.3397 0.5702
6.7686 28.8230 1.5732
3.5577 43.8752 2.3389
-3.0276 43.9152 2.3389
6.6684 16.6764 0.9545
-15.4325 39.9880 2.2778
-20.1188 35.2967 2.1595
-23.2301 29.4543 1.9944
-21.3212 19.9926 1.5545
-21.3246 14.6990 1.3780
-8.9226 40.1694 2.1865
-21.3271 10.4014 1.2629
-21.3324 6.6930 1.1905
-21.3376 0.0968 1.1372
-21.3365 -6.4823 1.1896
-21.3346 3.3178 1.1502
-21.3379 -10.1682 1.2615
-21.3481 -19.6573 1.5499
-21.3438 -14.4286 1.3755
-21.3370 -3.1202 1.1498
-24.0460 -29.9270 2.0511
-7.5642 -19.0837 1.0973
-21.6782 -37.2442 2.3030
3.1410 -43.6345 2.3389
-9.8670 -42.5954 2.3374
6.6906 -29.6951 1.6273
-3.4038 -43.6150 2.3389
6.7157 -8.4620 0.5772
6.7032 -11.6776 0.7196
6.7206 -4.6024 0.4349
6.7185 -6.2616 0.4905
6.7202 -3.2522 0.3984
6.7230 -1.0246 0.3626
6.7112 -17.2339 0.9886
6.7217 -2.0865 0.3755
6.6418 0.9919 0.3578
6.7243 -0.0100 0.3584
6.7312 3.2328 0.3975
6.7328 4.5813 0.4333
6.6510 6.1617 0.4822
6.7425 8.4439 0.5745
6.7297 2.0670 0.3749
6.6688 16.9746 0.9692
6.6621 11.5260 0.7076
3.2921 43.8960 2.3389
-7.3475 32.1573 1.7528
-3.2933 43.8961 2.3389
6.7696 29.6319 1.6151
6.7155 -8.5677 0.7109
6.7183 -6.3378 0.6030
6.7205 -4.6623 0.5338
6.7201 -3.3025 0.4885
6.7216 -2.1311 0.4599
6.7229 -1.0662 0.4438
6.7242 -0.0507 0.4383
6.6417 0.9509 0.4371
6.7296 2.0225 0.4576
6.7310 3.1827 0.4847
6.6557 6.0916 0.5870
6.7423 8.3396 0.6975
6.6618 11.3662 0.8567
6.7327 4.5219 0.5278
6.6683 16.6761 1.1677
2.9078 35.8611 2.3389
-2.4746 35.8936 2.3389
6.7683 28.8221 1.9247
-12.7601 33.0634 2.3042
-16.7922 29.4606 2.2051
-7.2929 32.8324 2.1865
-20.2529 25.6794 2.1272
-21.3212 19.9926 1.9016
-21.3246 14.6991 1.6855
-21.3267 10.4012 1.5447
-21.3324 6.6931 1.4560
-21.3345 3.3178 1.4066
-21.3378 0.0968 1.3906
-21.3368 -3.1202 1.4059
-21.3382 -10.1683 1.5422
-21.3444 -14.4289 1.6815
-21.3478 -19.6569 1.8945
-21.3369 -6.4824 1.4544
-20.9998 -26.1358 2.1894
-7.5567 -19.0646 1.3397
-7.5523 -32.6029 2.1865
-17.8571 -30.6794 2.3186
6.6903 -29.6941 1.9887
2.5702 -35.7042 2.3389
-2.7852 -35.6882 2.3389
6.7156 -8.4619 0.7055
6.7031 -11.6774 0.8794
6.7111 -17.2335 1.2082
6.7201 -3.2522 0.4871
6.7184 -6.2615 0.5996
6.7206 -4.6024 0.5316
6.7230 -1.0246 0.4434
6.7216 -2.0864 0.4590
6.7296 2.0670 0.4585
6.7311 3.2328 0.4861
6.7243 -0.0100 0.4382
6.6418 0.9919 0.4375
6.7328 4.5813 0.5300
6.6510 6.1616 0.5899
6.6686 16.9743 1.1858
6.6620 11.5259 0.8657
6.7424 8.4438 0.7028
6.7693 29.6310 1.9760
-2.6918 35.8780 2.3389
-7.3389 32.1198 2.1419
2.6908 35.8781 2.3389
6.7154 -8.5676 0.8403
6.7183 -6.3377 0.7128
6.7204 -4.6623 0.6311
6.7200 -3.3024 0.5776
6.7215 -2.1311 0.5438
6.7229 -1.0662 0.5248
6.7242 -0.0507 0.5182
6.6417 0.9509 0.5169
6.7295 2.0225 0.5412
6.7326 4.5219 0.6243
6.7310 3.1827 0.5733
6.6556 6.0916 0.6943
6.7422 8.3395 0.8251
6.6617 11.3661 1.0134
6.6681 16.6758 1.3813
2.4581 30.3151 2.3389
-2.0919 30.3427 2.3389
6.4997 27.6784 2.1865
-10.8742 28.1767 2.3228
-14.4947 25.4298 2.2515
-18.7082 23.7209 2.3242
-20.7269 19.4354 2.1865
-6.1651 27.7551 2.1865
-21.3262 10.4010 1.8268
-21.3245 14.6991 1.9935
-21.3325 6.6931 1.7219
-21.3344 3.3178 1.6633
-21.3379 0.0969 1.6444
-21.3367 -3.1201 1.6623
-21.3373 -6.4825 1.7196
-21.3386 -10.1684 1.8233
-20.8410 -19.1903 2.1865
-21.3449 -14.4292 1.9879
-15.2352 -26.1747 2.3383
-7.5491 -19.0454 1.5820
-18.9776 -23.6190 2.3389
-2.3563 -30.1925 2.3389
2.1744 -30.2061 2.3389
-6.3893 -27.5820 2.1865
6.7110 -17.2331 1.4281
6.2229 -27.6198 2.1865
6.7030 -11.6772 1.0396
6.7184 -6.2614 0.7088
6.7205 -4.6023 0.6285
6.7201 -3.2521 0.5759
6.7216 -2.0864 0.5427
6.7229 -1.0245 0.5243
6.7155 -8.4618 0.8339
6.7242 -0.0100 0.5182
6.6417 0.9920 0.5174
6.7310 3.2327 0.5749
6.7296 2.0670 0.5422
6.7327 4.5813 0.6268
6.6509 6.1616 0.6977
6.7423 8.4437 0.8313
6.6619 11.5257 1.0240
6.6685 16.9739 1.4026
6.3321 27.7173 2.1865
2.2746 30.3294 2.3389
-2.2755 30.3294 2.3389
-6.3329 27.7172 2.1865
6.7153 -8.5674 0.9700
6.7182 -6.3376 0.8228
6.7204 -4.6622 0.7286
6.7200 -3.3024 0.6668
6.7215 -2.1310 0.6278
6.7228 -1.0662 0.6058
6.7241 -0.0507 0.5983
6.6416 0.9509 0.5968
6.7295 2.0225 0.6249
6.7309 3.1827 0.6620
6.7326 4.5218 0.7209
6.6556 6.0915 0.8018
6.7421 8.3395 0.9528
6.6616 11.3659 1.1704
6.6680 16.6755 1.5952
5.6278 23.9656 2.1865
2.1284 26.2484 2.3389
-1.8113 26.2722 2.3389
-5.7101 25.7070 2.3389
-13.0376 22.8735 2.3389
-8.8628 22.9649 2.1865
-19.1990 18.0028 2.3389
-20.2535 13.9608 2.1865
-21.3258 10.4009 2.1095
-16.3015 20.6694 2.3389
-21.3326 6.6932 1.9883
-21.3381 0.0969 1.8986
-21.3365 -3.1201 1.9192
-21.3343 3.3179 1.9206
-21.3377 -6.4826 1.9854
-21.3389 -10.1685 2.1050
-19.3123 -17.7825 2.3389
-16.4401 -20.4608 2.3389
-13.2015 -22.6808 2.3389
-7.5419 -19.0271 1.8243
-20.3364 -13.7474 2.1865
-5.7602 -24.8662 2.2753
1.8838 -26.1688 2.3389
-2.0414 -26.1570 2.3389
6.7108 -17.2327 1.6484
5.3912 -23.9281 2.1865
6.7154 -8.4616 0.9626
6.7183 -6.2613 0.8182
6.7205 -4.6022 0.7255
6.7029 -11.6770 1.2000
6.7215 -2.0864 0.6266
6.7229 -1.0245 0.6053
6.7242 -0.0100 0.5983
6.7200 -3.2521 0.6648
6.6417 0.9920 0.5974
6.7310 3.2327 0.6639
6.7327 4.5813 0.7238
6.7295 2.0670 0.6261
6.6508 6.1615 0.8057
6.7422 8.4436 0.9600
6.6684 16.9736 1.6199
6.6618 11.5256 1.1826
5.4827 23.9992 2.1865
-1.9702 26.2608 2.3389
-5.7581 25.2013 2.2960
1.9695 26.2608 2.3389
6.7152 -8.5673 1.1000
6.7181 -6.3375 0.9331
6.7203 -4.6621 0.8262
6.7199 -3.3023 0.7562
6.7214 -2.1310 0.7119
6.7228 -1.0661 0.6871
6.7241 -0.0507 0.6786
6.6416 0.9509 0.6769
6.7294 2.0225 0.7088
6.7309 3.1827 0.7509
6.7325 4.5218 0.8177
6.6555 6.0915 0.9095
6.7420 8.3394 1.0808
6.6615 11.3658 1.3276
6.6679 16.6752 1.8096
4.9610 21.1258 2.1865
1.8762 23.1380 2.3389
-1.5966 23.1590 2.3389
-5.0335 22.6609 2.3389
-11.4930 20.1636 2.3389
-7.8126 20.2438 2.1865
-14.3704 18.2209 2.3389
-19.0996 13.1655 2.3389
-19.7159 9.6157 2.2121
-16.9250 15.8706 2.3389
-20.6822 6.4892 2.1865
-21.3342 3.3179 2.1783
-21.3382 0.0970 2.1534
-20.7201 -6.2949 2.1865
-21.3364 -3.1200 2.1767
-19.1825 -12.9670 2.3389
-17.0300 -15.6810 2.3389
-14.4976 -18.0431 2.3389
-11.6419 -20.0012 2.3389
-19.7166 -9.3955 2.2057
-5.2217 -22.5416 2.3389
-7.5346 -19.0089 2.0667
-1.8002 -23.0675 2.3389
1.6613 -23.0778 2.3389
4.7544 -21.1017 2.1865
6.7028 -11.6768 1.3607
6.7107 -17.2323 1.8692
6.7182 -6.2612 0.9278
6.7153 -8.4615 1.0916
6.7200 -3.2520 0.7540
6.7204 -4.6022 0.8228
6.7215 -2.0863 0.7106
6.7228 -1.0245 0.6865
6.6416 0.9920 0.6775
6.7241 -0.0100 0.6786
6.7295 2.0670 0.7101
6.7326 4.5812 0.8211
6.7309 3.2327 0.7530
6.7422 8.4436 1.0890
6.6617 11.5254 1.3415
6.6507 6.1615 0.9139
6.6682 16.9733 1.8376
1.7361 23.1489 2.3389
4.8330 21.1555 2.1865
-1.7368 23.1489 2.3389
-5.1705 22.6299 2.3389
6.7151 -8.5672 1.2302
6.7181 -6.3375 1.0436
6.7203 -4.6621 0.9241
6.7199 -3.3023 0.8458
6.7214 -2.1310 0.7963
6.7227 -1.0661 0.7686
6.7240 -0.0507 0.7591
6.6415 0.9509 0.7572
6.7294 2.0225 0.7929
6.7308 3.1827 0.8399
6.7325 4.5218 0.9148
6.6554 6.0914 1.0175
6.7420 8.3393 1.2092
6.6614 11.3656 1.4853
6.6677 16.6748 2.0245
4.6955 19.9956 2.3153
1.6770 20.6814 2.3389
-1.4271 20.7002 2.3389
-4.4991 20.2550 2.3389
-6.9832 18.0947 2.1865
-10.2729 18.0232 2.3389
-12.8451 16.2870 2.3389
-15.1289 14.1864 2.3389
-17.0730 11.7686 2.3389
-18.6341 9.0881 2.3389
-19.6942 6.1792 2.3290
-19.7085 3.0651 2.2511
-19.7132 0.0896 2.2254
-19.7088 -2.8820 2.2490
-19.6947 -5.9834 2.3246
-18.6918 -8.9071 2.3389
-17.1505 -11.5937 2.3389
-15.2263 -14.0201 2.3389
-12.9623 -16.1324 2.3389
-10.4092 -17.8834 2.3389
-7.1272 -17.9810 2.1865
-4.6689 -20.1551 2.3389
-1.6097 -20.6254 2.3389
1.4854 -20.6347 2.3389
4.5474 -20.1828 2.3389
7.0190 -18.0240 2.1865
6.7027 -11.6766 1.5218
6.7153 -8.4614 1.2209
6.7182 -6.2611 1.0377
6.7203 -4.6021 0.9202
6.7199 -3.2520 0.8433
6.7214 -2.0863 0.7948
6.7228 -1.0245 0.7678
6.7241 -0.0100 0.7591
6.6416 0.9920 0.7579
6.7294 2.0670 0.7943
6.7309 3.2327 0.8424
6.7325 4.5812 0.9185
6.6507 6.1614 1.0224
6.7421 8.4435 1.2183
6.6616 11.5253 1.5008
6.6681 16.9730 2.0558
4.6210 20.2274 2.3389
1.5518 20.6912 2.3389
-1.5524 20.6911 2.3389
-4.6216 20.2274 2.3389
6.7150 -8.5671 1.3608
6.7180 -6.3374 1.1545
6.7202 -4.6620 1.0222
6.7198 -3.3023 0.9356
6.7213 -2.1309 0.8809
6.7227 -1.0661 0.8502
6.7240 -0.0506 0.8398
6.6414 0.9509 0.8377
6.7293 2.0224 0.8772
6.7308 3.1827 0.9293
6.7324 4.5218 1.0121
6.6554 6.0914 1.1257
6.7419 8.3392 1.3378
6.6613 11.3655 1.6433
6.5083 16.2763 2.1865
1.5156 18.6916 2.3389
4.2870 18.2557 2.3389
-1.2898 18.7086 2.3389
-4.0662 18.3062 2.3389
-6.3114 16.3539 2.1865
-11.6096 14.7204 2.3389
-13.6739 12.8220 2.3389
-8.6797 15.2280 2.1865
-15.4312 10.6370 2.3389
-17.8762 5.6088 2.3389
-16.8425 8.2144 2.3389
-18.5092 2.8787 2.3389
-18.7278 0.0851 2.3389
-17.9122 -5.4418 2.3389
-16.8967 -8.0516 2.3389
-15.5038 -10.4805 2.3389
-18.5272 -2.7092 2.3389
-11.7181 -14.5838 2.3389
-13.7645 -12.6741 2.3389
-8.7970 -15.1135 2.1865
-4.2208 -18.2209 2.3389
-1.4552 -18.6461 2.3389
1.3429 -18.6545 2.3389
-6.4432 -16.2553 2.1865
4.1110 -18.2459 2.3389
6.7026 -11.6764 1.6834
6.3452 -16.2938 2.1865
6.7181 -6.2611 1.1479
6.7203 -4.6021 1.0180
6.7199 -3.2519 0.9329
6.7152 -8.4613 1.3505
6.7214 -2.0863 0.8793
6.7227 -1.0244 0.8494
6.6415 0.9920 0.8385
6.7294 2.0670 0.8788
6.7308 3.2327 0.9320
6.7325 4.5812 1.0162
6.6506 6.1614 1.1312
6.7420 8.4434 1.3480
6.7240 -0.0099 0.8397
6.4097 16.3155 2.1865
6.6615 11.5251 1.6605
4.1764 18.2814 2.3389
-1.4030 18.7004 2.3389
1.4025 18.7004 2.3389
-4.1769 18.2813 2.3389
6.7150 -8.5669 1.4918
6.7179 -6.3373 1.2656
6.7201 -4.6620 1.1207
6.7197 -3.3022 1.0257
6.7213 -2.1309 0.9658
6.7226 -1.0661 0.9322
6.7239 -0.0506 0.9207
6.6414 0.9509 0.9185
6.7293 2.0224 0.9618
6.7307 3.1827 1.0189
6.7323 4.5217 1.1097
6.6553 6.0913 1.2343
6.6612 11.3653 1.8018
6.7418 8.3391 1.4669
3.9097 16.6492 2.3389
5.9356 14.8441 2.1865
-1.1763 17.0621 2.3389
1.3822 17.0466 2.3389
-3.7084 16.6952 2.3389
-5.7748 14.9637 2.1936
-7.9160 13.8881 2.1865
-12.4709 11.6940 2.3389
-10.5881 13.4253 2.3389
-14.0739 9.7013 2.3389
-16.3043 5.1157 2.3389
-16.8819 2.6256 2.3389
-15.3613 7.4920 2.3389
-17.0816 0.0777 2.3389
-16.8989 -2.4711 2.3389
-16.3382 -4.9636 2.3389
-14.1419 -9.5598 2.3389
-15.4123 -7.3442 2.3389
-12.5556 -11.5609 2.3389
-8.0245 -13.7864 2.1865
-10.6890 -13.3030 2.3389
-5.8775 -14.8280 2.1865
-3.8503 -16.6211 2.3389
-1.3274 -17.0090 2.3389
1.2250 -17.0167 2.3389
3.7500 -16.6439 2.3389
6.7025 -11.6762 1.8454
6.7151 -8.4611 1.4805
6.7180 -6.2610 1.2584
6.7202 -4.6020 1.1160
5.7880 -14.8631 2.1865
6.7198 -3.2519 1.0227
6.7227 -1.0244 0.9313
6.7213 -2.0862 0.9640
6.7240 -0.0099 0.9207
6.7293 2.0670 0.9635
6.6414 0.9920 0.9193
6.7324 4.5812 1.1142
6.7308 3.2327 1.0218
6.6505 6.1613 1.2403
6.6613 11.5250 1.8207
6.7419 8.4433 1.4780
5.8457 14.8797 2.1865
3.8089 16.6726 2.3389
-1.2795 17.0546 2.3389
1.2790 17.0547 2.3389
-3.8093 16.6724 2.3389
6.7149 -8.5668 1.6233
6.7179 -6.3372 1.3771
6.7201 -4.6619 1.2194
6.7197 -3.3022 1.1161
6.7212 -2.1309 1.0509
6.7226 -1.0661 1.0143
6.7239 -0.0506 1.0019
6.6413 0.9509 0.9995
6.7292 2.0224 1.0466
6.7306 3.1826 1.1088
6.7323 4.5217 1.2076
6.6552 6.0913 1.3432
6.7417 8.3391 1.5963
5.4541 13.6399 2.1865
6.6611 11.3652 1.9609
1.2701 15.6637 2.3389
-1.0809 15.6779 2.3389
3.5925 15.2985 2.3389
-3.4075 15.3408 2.3389
-5.6577 14.6601 2.3389
-7.2738 12.7615 2.1865
-11.4595 10.7457 2.3389
-9.0954 11.5325 2.1865
-12.9326 8.9147 2.3389
-14.9825 4.7010 2.3389
-14.1158 6.8846 2.3389
-15.6973 0.0714 2.3389
-15.5136 2.4128 2.3389
-15.5297 -2.2708 2.3389
-15.0146 -4.5614 2.3389
-12.9965 -8.7855 2.3389
-14.1638 -6.7493 2.3389
-9.1834 -11.4293 2.1865
-11.5389 -10.6247 2.3389
-3.5386 -15.2756 2.3389
-1.2200 -15.6321 2.3389
1.1258 -15.6392 2.3389
-7.3748 -12.6701 2.1865
3.4465 -15.2965 2.3389
-5.7516 -14.5105 2.3281
5.3195 -13.6598 2.1865
6.7150 -8.4610 1.6109
6.7180 -6.2609 1.3693
6.7202 -4.6020 1.2143
6.7024 -11.6760 2.0079
6.7213 -2.0862 1.0489
6.7197 -3.2519 1.1128
6.7226 -1.0244 1.0134
6.7293 2.0669 1.0485
6.7239 -0.0099 1.0018
6.7307 3.2327 1.1120
6.6505 6.1613 1.3498
6.7323 4.5811 1.2125
6.7418 8.4432 1.6084
5.3715 13.6727 2.1865
6.6612 11.5248 1.9814
6.6414 0.9920 1.0004
1.1753 15.6711 2.3389
3.4999 15.3200 2.3389
-1.1757 15.6710 2.3389
-3.5003 15.3199 2.3389
6.7148 -8.5667 1.7551
6.7178 -6.3371 1.4890
6.7200 -4.6618 1.3185
6.7196 -3.3021 1.2068
6.7212 -2.1309 1.1364
6.7225 -1.0660 1.0968
6.7238 -0.0506 1.0833
6.6413 0.9509 1.0808
6.7292 2.0224 1.1317
6.7306 3.1826 1.1990
6.7322 4.5217 1.3058
6.6552 6.0912 1.4525
6.7416 8.3390 1.7263
6.8682 11.7187 2.1865
5.0435 12.6131 2.1865
3.3220 14.1468 2.3389
1.1745 14.4844 2.3389
-0.9995 14.4976 2.3389
-3.1510 14.1859 2.3389
-5.2318 13.5566 2.3389
-8.4108 10.6645 2.1865
-6.7263 11.8009 2.1865
-11.9594 8.2438 2.3389
-13.0536 6.3666 2.3389
-13.8553 4.3473 2.3389
-10.5970 9.9369 2.3389
-14.3467 2.2314 2.3389
-14.5167 0.0661 2.3389
-13.8857 -4.2184 2.3389
-14.3619 -2.1000 2.3389
-13.0991 -6.2419 2.3389
-10.6716 -9.8261 2.3389
-6.8207 -11.7180 2.1865
-8.4933 -10.5703 2.1865
-5.3440 -13.4821 2.3389
-3.2727 -14.1278 2.3389
1.0412 -14.4641 2.3389
-1.1283 -14.4576 2.3389
-12.0196 -8.1251 2.3389
6.7499 -11.7588 2.1865
6.7149 -8.4609 1.7417
4.9198 -12.6334 2.1865
6.7179 -6.2608 1.4806
6.7201 -4.6019 1.3130
6.7197 -3.2518 1.2033
6.7226 -1.0244 1.0958
6.7212 -2.0862 1.1342
6.6413 0.9920 1.0817
6.7292 2.0669 1.1338
3.1875 -14.1472 2.3389
6.7306 3.2326 1.2024
6.7323 4.5811 1.3112
6.7417 8.4432 1.7393
6.7970 11.7599 2.1864
6.7239 -0.0099 1.0833
3.2364 14.1667 2.3389
4.9671 12.6434 2.1865
1.0868 14.4913 2.3389
-1.0872 14.4912 2.3389
-3.2368 14.1666 2.3389
6.6504 6.1613 1.4596
6.7147 -8.5665 1.8875
6.7177 -6.3370 1.6013
6.7199 -4.6618 1.4180
6.7196 -3.3021 1.2979
6.7211 -2.1308 1.2221
6.7225 -1.0660 1.1796
6.7238 -0.0506 1.1651
6.6412 0.9509 1.1624
6.7291 2.0224 1.2172
6.7305 3.1826 1.2895
6.7321 4.5217 1.4045
6.6551 6.0912 1.5622
6.7415 8.3389 1.8567
6.3857 10.8955 2.1865
4.7184 11.8001 2.2001
3.0886 13.1528 2.3389
1.0919 13.4667 2.3389
-0.9293 13.4790 2.3389
-2.9296 13.1892 2.3389
-4.8642 12.6041 2.3389
-6.2537 10.9719 2.1865
-7.8199 9.9154 2.1865
-9.2107 8.6370 2.1865
-11.1194 7.6649 2.3389
-12.1369 5.9195 2.3389
-12.8825 4.0421 2.3389
-13.3394 2.0747 2.3389
-13.4977 0.0614 2.3389
-13.3538 -1.9526 2.3389
-12.9113 -3.9224 2.3389
-12.1799 -5.8039 2.3389
-11.1763 -7.5550 2.3389
-9.9230 -9.1368 2.3389
-7.8975 -9.8288 2.1865
-6.3423 -10.8961 2.1865
-4.9692 -12.5365 2.3389
-3.0432 -13.1370 2.3389
-1.0492 -13.4436 2.3389
0.9682 -13.4497 2.3389
2.9640 -13.1550 2.3389
4.7084 -12.0907 2.2504
6.2765 -10.9341 2.1865
6.7148 -8.4608 1.8731
6.7178 -6.2607 1.5923
6.7200 -4.6018 1.4121
6.7196 -3.2518 1.2941
6.7212 -2.0861 1.2198
6.7225 -1.0244 1.1785
6.7238 -0.0099 1.1651
6.6413 0.9920 1.1634
6.7292 2.0669 1.2194
6.7306 3.2326 1.2933
6.7322 4.5811 1.4102
6.6503 6.1612 1.5698
6.7417 8.4431 1.8707
6.3197 10.9339 2.1865
4.7114 11.9927 2.2307
3.0090 13.1713 2.3389
1.0104 13.4731 2.3389
-1.0108 13.4731 2.3389
-3.0094 13.1712 2.3389
6.7146 -8.5664 2.0204
6.7176 -6.3369 1.7141
6.7199 -4.6617 1.5178
6.7195 -3.3020 1.3893
6.7210 -2.1308 1.3082
6.7224 -1.0660 1.2627
6.7237 -0.0506 1.2472
6.6412 0.9509 1.2443
6.7291 2.0224 1.3030
6.7305 3.1826 1.3804
6.7321 4.5216 1.5035
6.6550 6.0911 1.6724
6.7415 8.3388 1.9876
5.9649 10.1775 2.1865
4.6854 11.7177 2.3389
2.8851 12.2861 2.3389
1.0200 12.5792 2.3389
-0.8680 12.5907 2.3389
-2.7365 12.3200 2.3389
-4.5436 11.7735 2.3389
-5.8416 10.2490 2.1865
-7.3046 9.2621 2.1865
-8.6038 8.0679 2.1865
-10.3869 7.1600 2.3389
-11.3375 5.5296 2.3389
-12.4610 1.9381 2.3389
-12.0340 3.7759 2.3389
-12.4747 -1.8240 2.3389
-12.6089 0.0574 2.3389
-11.3783 -5.4218 2.3389
-12.0613 -3.6642 2.3389
-8.6660 -7.9793 2.1865
-10.4408 -7.0578 2.3389
-7.3779 -9.1821 2.1865
-5.9250 -10.1792 2.1865
-2.8430 -12.2727 2.3389
-0.9802 -12.5592 2.3389
0.9045 -12.5649 2.3389
2.7690 -12.2896 2.3389
4.5716 -11.7394 2.3389
-4.6423 -11.7117 2.3389
5.8635 -10.2146 2.1865
6.7148 -8.4606 2.0050
6.7177 -6.2606 1.7044
6.7196 -3.2517 1.3853
6.7200 -4.6018 1.5115
6.7225 -1.0243 1.2615
6.7238 -0.0099 1.2472
6.7291 2.0669 1.3054
6.7305 3.2326 1.3844
6.6412 0.9920 1.2454
6.6503 6.1612 1.6805
6.7416 8.4430 2.0027
6.7211 -2.0861 1.3057
4.6145 11.7459 2.3389
2.8107 12.3033 2.3389
-0.9442 12.5852 2.3389
6.7322 4.5810 1.5097
0.9438 12.5852 2.3389
5.9032 10.2135 2.1865
-2.8110 12.3032 2.3389
6.8158 -8.6956 2.1864
6.7176 -6.3369 1.8274
6.7198 -4.6617 1.6182
6.7194 -3.3020 1.4812
6.7210 -2.1308 1.3947
6.7224 -1.0660 1.3462
6.7237 -0.0506 1.3297
6.6411 0.9510 1.3266
6.7290 2.0224 1.3892
6.7304 3.1826 1.4718
6.7320 4.5216 1.6030
6.6550 6.0911 1.7831
6.9557 8.6039 2.1865
5.5946 9.5458 2.1865
4.3946 10.9903 2.3389
0.9567 11.7983 2.3389
-0.8141 11.8090 2.3389
-2.5666 11.5552 2.3389
2.7060 11.5233 2.3389
-5.7574 10.1011 2.2976
-4.2616 11.0426 2.3389
-8.0698 7.5672 2.1865
-6.8512 8.6872 2.1865
-10.6339 5.1865 2.3389
-9.1075 6.2780 2.1865
-11.6879 1.8179 2.3389
-11.2873 3.5416 2.3389
-11.7009 -1.7109 2.3389
-11.8268 0.0539 2.3389
-11.3133 -3.4369 2.3389
-9.1553 -6.1886 2.1865
-8.1287 -7.4847 2.1865
-6.9205 -8.6128 2.1865
-10.6727 -5.0856 2.3389
-4.3545 -10.9857 2.3389
-5.7620 -9.8991 2.2668
-0.9194 -11.7808 2.3389
-2.6668 -11.5120 2.3389
0.8484 -11.7861 2.3389
4.2883 -11.0117 2.3389
2.5974 -11.5278 2.3389
6.8684 -8.6543 2.1865
5.5001 -9.5815 2.1865
6.7177 -6.2606 1.8170
6.7195 -3.2517 1.4768
6.7210 -2.0861 1.3921
6.7199 -4.6017 1.6114
6.6412 0.9920 1.3278
6.7237 -0.0099 1.3297
6.7224 -1.0243 1.3449
6.7305 3.2326 1.4760
6.7321 4.5810 1.6095
6.7291 2.0669 1.3917
6.9034 8.6457 2.1865
4.3280 11.0167 2.3389
5.5368 9.5795 2.1865
2.6362 11.5395 2.3389
0.8852 11.8039 2.3389
6.6502 6.1611 1.7917
-0.8856 11.8039 2.3389
-2.6365 11.5395 2.3389
6.4163 -8.1858 2.1865
6.7175 -6.3368 1.9412
6.7198 -4.6616 1.7189
6.7194 -3.3020 1.5734
6.7209 -2.1307 1.4816
6.7223 -1.0660 1.4301
6.7236 -0.0505 1.4126
6.6411 0.9510 1.4093
6.7289 2.0224 1.4758
6.7304 3.1826 1.5635
6.7320 4.5216 1.7029
6.6549 6.0911 1.8942
6.5473 8.0987 2.1865
4.1366 10.3451 2.3389
2.5471 10.8468 2.3389
5.2662 8.9854 2.1865
0.9005 11.1056 2.3389
-0.7663 11.1157 2.3389
-4.0114 10.3943 2.3389
-5.5168 9.6791 2.3389
-2.4159 10.8768 2.3389
-6.4490 8.1772 2.1865
-8.5729 5.9096 2.1865
-7.5961 7.1231 2.1865
-10.6250 3.3338 2.3389
-11.0021 1.7113 2.3389
-10.0099 4.8822 2.3389
-11.1329 0.0508 2.3389
-11.0146 -1.6105 2.3389
-10.0468 -4.7873 2.3389
-8.6184 -5.8259 2.1865
-7.6521 -7.0458 2.1865
-6.5148 -8.1078 2.1865
-5.5966 -9.6149 2.3389
-4.0993 -10.3417 2.3389
-2.5104 -10.8371 2.3389
-0.8655 -11.0902 2.3389
-10.6498 -3.2353 2.3389
2.4451 -10.8520 2.3389
0.7987 -11.0952 2.3389
4.0369 -10.3662 2.3389
5.1776 -9.0197 2.1865
6.4658 -8.1469 2.1865
6.7176 -6.2605 1.9302
6.7195 -3.2516 1.5688
6.7210 -2.0861 1.4788
6.7224 -1.0243 1.4287
6.7237 -0.0098 1.4125
6.6411 0.9920 1.4105
6.7198 -4.6017 1.7118
6.7290 2.0669 1.4785
6.7304 3.2326 1.5680
6.4981 8.1382 2.1865
6.6501 6.1611 1.9034
6.7320 4.5810 1.7099
4.0739 10.3699 2.3389
5.2117 9.0171 2.1865
-0.8336 11.1108 2.3389
0.8333 11.1109 2.3389
2.4814 10.8620 2.3389
-2.4817 10.8620 2.3389
6.0593 -7.7303 2.1865
6.7174 -6.3367 2.0555
6.7197 -4.6615 1.8202
6.7193 -3.3019 1.6662
6.7209 -2.1307 1.5689
6.7223 -1.0659 1.5144
6.7236 -0.0505 1.4958
6.6410 0.9510 1.4923
6.7289 2.0224 1.5628
6.7303 3.1826 1.6557
6.7319 4.5215 1.8033
6.6548 6.0910 2.0060
6.1825 7.6475 2.1865
4.9728 8.4848 2.1865
3.9061 9.7687 2.3389
2.4052 10.2425 2.3389
0.8503 10.4869 2.3389
-0.7236 10.4964 2.3389
-2.2813 10.2708 2.3389
-5.2095 9.1398 2.3389
-3.7879 9.8152 2.3389
-7.1730 6.7263 2.1865
-6.0898 7.7217 2.1865
-8.0954 5.5804 2.1865
-8.8364 4.3099 2.1865
-10.0333 3.1482 2.3389
-10.3895 1.6160 2.3389
-10.4014 -1.5208 2.3389
-10.5131 0.0479 2.3389
-8.8694 -4.2262 2.1865
-8.1388 -5.5016 2.1865
-7.2263 -6.6536 2.1865
-6.1522 -7.6567 2.1865
-10.0569 -3.0552 2.3389
-3.8712 -9.7663 2.3389
-5.2852 -9.0799 2.3389
-0.8174 -10.4731 2.3389
-2.3708 -10.2342 2.3389
2.3091 -10.2482 2.3389
0.7543 -10.4779 2.3389
3.8123 -9.7894 2.3389
4.8895 -8.5178 2.1865
6.1060 -7.6935 2.1865
6.7198 -4.6016 1.8127
6.7175 -6.2604 2.0439
6.7209 -2.0860 1.5659
6.7194 -3.2516 1.6613
6.7223 -1.0243 1.5129
6.6411 0.9920 1.4937
6.7236 -0.0098 1.4958
6.7304 3.2326 1.6605
6.7320 4.5810 1.8107
6.7289 2.0669 1.5657
6.1361 7.6848 2.1865
6.6500 6.1610 2.0157
3.8469 9.7922 2.3389
4.9214 8.5148 2.1865
2.3432 10.2569 2.3389
0.7868 10.4918 2.3389
-0.7871 10.4918 2.3389
-2.3435 10.2568 2.3389
5.7383 -7.3208 2.1865
6.7668 -6.3833 2.1865
6.7196 -4.6615 1.9220
6.7193 -3.3019 1.7594
6.7208 -2.1307 1.6567
6.7222 -1.0659 1.5991
6.7235 -0.0505 1.5795
6.6410 0.9510 1.5759
6.7288 2.0224 1.6503
6.7302 3.1826 1.7484
6.7318 4.5215 1.9043
6.8689 6.2870 2.1865
5.8546 7.2420 2.1865
4.7248 8.0617 2.1938
3.6989 9.2506 2.3389
2.2776 9.6992 2.3389
0.8052 9.9307 2.3389
-0.6852 9.9397 2.3389
-2.1603 9.7261 2.3389
-3.5870 9.2947 2.3389
-4.9332 8.6551 2.3389
-5.7753 7.3230 2.1897
-7.6662 5.2846 2.1865
-8.3679 4.0814 2.1865
-6.7926 6.3696 2.1865
-8.8823 2.7871 2.1865
-9.1976 1.4306 2.1865
-9.9558 0.0454 2.3389
-7.5924 -2.3064 1.8645
-9.2083 -1.3464 2.1865
-8.3994 -4.0023 2.1865
-6.8434 -6.3011 2.1865
-5.8263 -7.2510 2.1865
-7.7076 -5.2101 2.1865
-5.0052 -8.5989 2.3389
-2.2452 -9.6921 2.3389
-0.7741 -9.9184 2.3389
0.7143 -9.9229 2.3389
2.1868 -9.7054 2.3389
3.6103 -9.2708 2.3389
-3.6661 -9.2489 2.3389
4.7130 -8.2102 2.2254
6.8053 -6.3422 2.1865
6.7197 -4.6015 1.9141
5.7825 -7.2860 2.1865
6.7209 -2.0860 1.6535
6.7223 -1.0242 1.5976
6.7193 -3.2516 1.7542
6.7236 -0.0098 1.5795
6.6410 0.9920 1.5773
6.7303 3.2326 1.7534
6.7319 4.5809 1.9121
6.7289 2.0669 1.6533
4.7150 8.1577 2.2121
3.6429 9.2729 2.3389
2.2189 9.7129 2.3389
6.8307 6.3285 2.1864
-0.7454 9.9353 2.3389
0.7451 9.9354 2.3389
5.8107 7.2773 2.1865
-2.2192 9.7128 2.3389
5.4481 -6.9505 2.1865
6.4245 -6.0604 2.1865
6.7196 -4.6614 2.0244
6.7192 -3.3018 1.8531
6.7208 -2.1306 1.7449
6.7221 -1.0659 1.6843
6.7234 -0.0505 1.6637
6.6409 0.9510 1.6598
6.7288 2.0224 1.7382
6.7302 3.1825 1.8416
6.7318 4.5215 2.0058
6.5212 5.9688 2.1865
5.5582 6.8754 2.1865
4.6990 8.0178 2.2982
3.5116 8.7822 2.3389
2.1623 9.2081 2.3389
0.7644 9.4278 2.3389
-0.6505 9.4364 2.3389
-2.0509 9.2336 2.3389
-3.4054 8.8241 2.3389
-4.6834 8.2169 2.3389
-5.7571 7.2998 2.2992
-6.4487 6.0472 2.1865
-7.2781 5.0170 2.1865
-7.9444 3.8748 2.1865
-8.7322 1.3582 2.1865
-8.8362 0.0403 2.1865
-8.7424 -1.2782 2.1865
-8.4327 2.6460 2.1865
-7.9745 -3.7998 2.1865
-7.5842 -2.3039 1.9617
-7.3177 -4.9466 2.1865
-5.7604 -7.1689 2.2769
-6.4973 -5.9824 2.1865
-3.4807 -8.7812 2.3389
-4.7521 -8.1640 2.3389
-2.1316 -9.2019 2.3389
-0.7349 -9.4168 2.3389
2.0762 -9.2146 2.3389
0.6782 -9.4211 2.3389
3.4278 -8.8020 2.3389
4.6929 -8.1752 2.3339
6.4611 -6.0214 2.1865
6.7196 -4.6015 2.0160
5.4901 -6.9175 2.1865
6.7193 -3.2515 1.8476
6.7208 -2.0860 1.7416
6.7235 -0.0098 1.6637
6.7222 -1.0242 1.6827
6.7288 2.0669 1.7414
6.7302 3.2326 1.8469
6.7318 4.5809 2.0140
6.6410 0.9920 1.6613
6.4850 6.0082 2.1865
5.5165 6.9089 2.1865
3.4584 8.8033 2.3389
4.6950 8.1231 2.3202
0.7074 9.4323 2.3389
-0.7076 9.4323 2.3389
2.1065 9.2211 2.3389
-2.1068 9.2210 2.3389
5.1843 -6.6141 2.1865
6.1135 -5.7670 2.1865
6.9060 -4.7908 2.1865
6.7192 -3.3018 1.9474
6.7207 -2.1306 1.8337
6.7221 -1.0659 1.7700
6.7234 -0.0505 1.7484
6.6409 0.9510 1.7443
6.7287 2.0224 1.8267
6.7301 3.1825 1.9353
6.9827 4.6901 2.1865
6.2052 5.6796 2.1865
5.2889 6.5422 2.1865
4.5505 7.7643 2.3389
3.3415 8.3567 2.3389
2.0575 8.7619 2.3389
0.7274 8.9709 2.3389
-0.6190 8.9791 2.3389
-1.9515 8.7861 2.3389
-3.2403 8.3964 2.3389
-4.4564 7.8188 2.3389
-5.5727 7.0661 2.3389
-6.1363 5.7542 2.1865
-6.9255 4.7740 2.1865
-7.5595 3.6871 2.1865
-8.0242 2.5179 2.1865
-8.3092 1.2925 2.1865
-8.4082 0.0384 2.1865
-8.3190 -1.2163 2.1865
-7.5759 -2.3014 2.0593
-7.5884 -3.6158 2.1865
-6.9634 -4.7070 2.1865
-6.1827 -5.6928 2.1865
-5.6308 -7.0076 2.3389
-4.5220 -7.7688 2.3389
-3.3123 -8.3561 2.3389
-2.0285 -8.7565 2.3389
-0.6994 -8.9610 2.3389
0.6454 -8.9650 2.3389
1.9757 -8.7685 2.3389
3.2618 -8.3759 2.3389
4.4751 -7.7959 2.3389
5.2243 -6.5826 2.1865
6.1483 -5.7299 2.1865
6.9349 -4.7489 2.1865
6.7192 -3.2515 1.9416
6.7208 -2.0859 1.8303
6.7221 -1.0242 1.7684
6.7234 -0.0098 1.7484
6.6409 0.9920 1.7459
6.7288 2.0669 1.8301
6.7302 3.2325 1.9409
6.9542 4.7322 2.1865
6.1708 5.7171 2.1865
5.2492 6.5741 2.1865
4.5034 7.7918 2.3389
3.2908 8.3767 2.3389
2.0044 8.7742 2.3389
0.6731 8.9752 2.3389
-0.6733 8.9752 2.3389
-2.0047 8.7741 2.3389
4.9435 -6.3068 2.1865
5.8295 -5.4991 2.1865
6.5852 -4.5682 2.1865
6.7191 -3.3017 2.0422
6.7207 -2.1306 1.9231
6.7220 -1.0658 1.8563
6.7233 -0.0505 1.8336
6.6408 0.9510 1.8293
6.7287 2.0224 1.9157
6.7301 3.1825 2.0297
6.6580 4.4720 2.1865
5.9168 5.4156 2.1865
5.0430 6.2381 2.1865
4.3389 7.4034 2.3389
3.1861 7.9681 2.3389
1.9618 8.3545 2.3389
0.6936 8.5538 2.3389
-0.5902 8.5616 2.3389
-1.8608 8.3776 2.3389
-3.0897 8.0061 2.3389
-5.3136 6.7376 2.3389
-5.8510 5.4867 2.1865
-6.6035 4.5521 2.1865
-4.2493 7.4553 2.3389
-7.6513 2.4008 2.1865
-7.2081 3.5157 2.1865
-7.9230 1.2324 2.1865
-8.0175 0.0366 2.1865
-7.5674 -2.2988 2.1572
-7.9324 -1.1597 2.1865
-7.2358 -3.4478 2.1865
-5.8955 -5.4283 2.1865
-5.3692 -6.6821 2.3389
-6.6399 -4.4884 2.1865
-3.1584 -7.9680 2.3389
-4.3120 -7.4080 2.3389
-1.9343 -8.3498 2.3389
-0.6669 -8.5448 2.3389
1.8839 -8.3613 2.3389
0.6154 -8.5487 2.3389
3.1104 -7.9869 2.3389
4.2673 -7.4338 2.3389
4.9816 -6.2768 2.1865
6.6127 -4.5283 2.1865
5.8627 -5.4637 2.1865
6.7207 -2.0859 1.9194
6.7192 -3.2514 2.0362
6.7221 -1.0242 1.8545
6.7234 -0.0098 1.8335
6.7287 2.0669 1.9192
6.6409 0.9920 1.8309
6.6308 4.5122 2.1865
5.8839 5.4513 2.1865
6.7301 3.2325 2.0355
3.1378 7.9873 2.3389
1.9112 8.3662 2.3389
0.6418 8.5579 2.3389
4.2941 7.4295 2.3389
5.0052 6.2685 2.1865
-0.6420 8.5579 2.3389
-1.9115 8.3662 2.3389
4.7294 -6.0338 2.1895
5.5692 -5.2535 2.1865
6.2910 -4.3641 2.1865
6.8723 -3.3770 2.1865
6.7206 -2.1305 2.0130
6.7220 -1.0658 1.9430
6.7233 -0.0505 1.9193
6.6408 0.9510 1.9149
6.7286 2.0224 2.0053
6.9261 3.2752 2.1865
6.3604 4.2721 2.1865
5.6523 5.1735 2.1865
4.8176 5.9592 2.1865
4.1450 7.0724 2.3389
3.0437 7.6119 2.3389
1.8741 7.9811 2.3389
0.6626 8.1714 2.3389
-0.5638 8.1789 2.3389
-1.7776 8.0031 2.3389
-2.9515 7.6482 2.3389
-4.0593 7.1220 2.3389
-5.0761 6.4364 2.3389
-5.7644 5.4055 2.2549
-6.3084 4.3486 2.1865
-6.8860 3.3586 2.1865
-7.3093 2.2936 2.1865
-7.5690 1.1774 2.1865
-7.6592 0.0350 2.1865
-7.5781 -1.1079 2.1865
-7.3273 -2.2259 2.1865
-6.9126 -3.2938 2.1865
-6.3433 -4.2879 2.1865
-5.7668 -5.3098 2.2387
-5.1295 -6.3837 2.3389
-4.1194 -7.0771 2.3389
-3.0174 -7.6122 2.3389
-1.8479 -7.9769 2.3389
-0.6371 -8.1632 2.3389
0.5879 -8.1669 2.3389
1.7998 -7.9879 2.3389
2.9715 -7.6302 2.3389
4.0767 -7.1018 2.3389
4.7592 -5.9965 2.1865
5.6009 -5.2197 2.1865
6.3174 -4.3260 2.1865
6.8926 -3.3354 2.1865
6.7207 -2.0859 2.0092
6.7220 -1.0242 1.9412
6.7233 -0.0098 1.9193
6.6408 0.9921 1.9166
6.7287 2.0669 2.0090
6.9061 3.3171 2.1865
6.3344 4.3105 2.1865
5.6209 5.2077 2.1865
4.7814 5.9883 2.1865
4.1021 7.0974 2.3389
2.9976 7.6302 2.3389
1.8258 7.9923 2.3389
0.6131 8.1753 2.3389
-0.6133 8.1753 2.3389
-1.8260 7.9922 2.3389
4.7036 -6.0007 2.2755
5.3295 -5.0274 2.1865
6.0203 -4.1763 2.1865
6.5765 -3.2317 2.1865
6.7219 -1.0658 2.0304
6.7232 -0.0504 2.0056
6.9858 -2.2146 2.1865
7.0208 2.1103 2.1865
6.6407 0.9510 2.0010
6.6278 3.1342 2.1865
5.4089 4.9508 2.1865
4.7109 5.8273 2.2343
6.0865 4.0882 2.1865
3.9665 6.7679 2.3389
2.9126 7.2842 2.3389
1.7934 7.6373 2.3389
-0.5396 7.8266 2.3389
0.6340 7.8195 2.3389
-1.7011 7.6585 2.3389
-3.8845 6.8153 2.3389
-2.8244 7.3188 2.3389
-5.7216 5.3654 2.3389
-6.0368 4.1614 2.1865
-6.5895 3.2140 2.1865
-6.9946 2.1948 2.1865
-7.2432 1.1267 2.1865
-4.8575 6.1593 2.3389
-7.2519 -1.0602 2.1865
-7.3295 0.0335 2.1865
-6.6151 -3.1520 2.1865
-7.0119 -2.1300 2.1865
-6.0704 -4.1033 2.1865
-5.7511 -5.2952 2.3330
-4.9087 -6.1090 2.3389
-3.9422 -6.7726 2.3389
-0.6097 -7.8120 2.3389
0.5626 -7.8155 2.3389
1.7224 -7.6442 2.3389
-1.7684 -7.6337 2.3389
2.8436 -7.3019 2.3389
-2.8876 -7.2847 2.3389
3.9013 -6.7962 2.3389
5.3599 -4.9951 2.1865
4.7066 -5.9302 2.2595
6.9991 -2.1723 2.1865
6.7220 -1.0241 2.0285
6.6408 0.9921 2.0028
6.5960 -3.1918 2.1865
6.7233 -0.0097 2.0056
7.0079 2.1527 2.1865
5.3789 4.9834 2.1865
3.9254 6.7918 2.3389
6.0455 -4.1398 2.1865
1.7472 7.6480 2.3389
4.7081 5.8964 2.2498
2.8685 7.3016 2.3389
0.5867 7.8232 2.3389
-1.7474 7.6480 2.3389
6.0617 4.1249 2.1865
-0.5869 7.8232 2.3389
6.6087 3.1742 2.1865
4.6338 -5.9116 2.3389
5.1082 -4.8186 2.1865
5.7703 -4.0028 2.1865
6.3033 -3.0974 2.1865
6.6954 -2.1225 2.1865
6.9378 -1.1000 2.1865
7.0251 -0.0527 2.1865
6.9548 0.9960 2.1865
6.7288 2.0225 2.1865
6.3523 3.0040 2.1865
5.8335 3.9183 2.1865
5.1841 4.7450 2.1865
4.6945 5.8070 2.3230
3.8016 6.4865 2.3389
2.7915 6.9813 2.3389
1.7189 7.3198 2.3389
0.6077 7.4945 2.3389
-0.5171 7.5013 2.3389
-1.6303 7.3401 2.3389
-2.7070 7.0146 2.3389
-3.7230 6.5320 2.3389
-4.6555 5.9032 2.3389
-5.4838 5.1424 2.3389
-5.7859 3.9885 2.1865
-6.3156 3.0805 2.1865
-6.7040 2.1036 2.1865
-6.9422 1.0799 2.1865
-7.0250 0.0322 2.1865
-6.9506 -1.0161 2.1865
-6.3403 -3.0211 2.1865
-5.8182 -3.9329 2.1865
-6.7206 -2.0415 2.1865
-5.5261 -5.0881 2.3389
-4.7049 -5.8552 2.3389
-2.7676 -6.9821 2.3389
-3.7785 -6.4913 2.3389
-0.5844 -7.4876 2.3389
-1.6950 -7.3167 2.3389
1.6508 -7.3268 2.3389
3.7393 -6.5139 2.3389
4.6695 -5.8834 2.3389
0.5393 -7.4910 2.3389
5.1372 -4.7876 2.1865
6.7082 -2.0820 2.1865
6.3220 -3.0592 2.1865
2.7255 -6.9986 2.3389
6.9487 1.0381 2.1865
6.7165 2.0632 2.1865
6.9444 -1.0580 2.1865
6.3340 3.0423 2.1865
5.8097 3.9535 2.1865
5.1553 4.7763 2.1865
2.7492 6.9981 2.3389
7.0253 -0.0102 2.1865
5.7944 -3.9679 2.1865
4.6910 5.8751 2.3389
1.6745 7.3301 2.3389
-0.5625 7.4980 2.3389
3.7623 6.5095 2.3389
0.5623 7.4980 2.3389
-1.6747 7.3301 2.3389
4.4477 -5.6742 2.3389
4.9030 -4.6250 2.1865
5.5385 -3.8420 2.1865
6.0501 -2.9730 2.1865
6.4265 -2.0373 2.1865
6.6590 -1.0558 2.1865
6.7426 -0.0506 2.1865
6.6752 0.9560 2.1865
6.4584 1.9413 2.1865
6.0971 2.8832 2.1865
5.5991 3.7608 2.1865
4.9757 4.5543 2.1865
4.5365 5.6116 2.3389
3.6488 6.2258 2.3389
2.6793 6.7007 2.3389
1.6498 7.0256 2.3389
0.5832 7.1932 2.3389
-1.5648 7.0451 2.3389
-0.4963 7.1998 2.3389
-3.5734 6.2695 2.3389
-4.4684 5.6660 2.3389
-5.2634 4.9358 2.3389
-6.0618 2.9567 2.1865
-2.5982 6.7326 2.3389
-6.7428 0.0309 2.1865
-6.4346 2.0191 2.1865
-6.6714 -0.9753 2.1865
-6.6633 1.0365 2.1865
-5.7638 -3.8961 2.2567
-6.4507 -1.9595 2.1865
-4.5159 -5.6201 2.3389
-6.0857 -2.8997 2.1865
-3.6267 -6.2306 2.3389
-5.3042 -4.8837 2.3389
-1.6269 -7.0229 2.3389
1.5845 -7.0325 2.3389
-0.5609 -7.1869 2.3389
0.5176 -7.1901 2.3389
2.6161 -6.7176 2.3389
3.5891 -6.2523 2.3389
-5.7620 3.9721 2.2686
-2.6565 -6.7017 2.3389
5.5617 -3.8085 2.1865
4.4820 -5.6471 2.3389
6.4387 -1.9983 2.1865
6.4466 1.9803 2.1865
6.7428 -0.0098 2.1865
6.6653 -1.0155 2.1865
6.6693 0.9964 2.1865
6.0795 2.9201 2.1865
2.6387 6.7168 2.3389
5.5763 3.7947 2.1865
3.6110 6.2478 2.3389
-0.5399 7.1966 2.3389
1.6072 7.0355 2.3389
4.9481 4.5844 2.1865
4.9309 -4.5953 2.1865
6.0681 -2.9363 2.1865
4.5025 5.6390 2.3389
-1.6074 7.0354 2.3389
0.5397 7.1966 2.3389
4.2747 -5.4535 2.3389
4.7261 -4.4581 2.1929
5.3231 -3.6926 2.1865
5.8148 -2.8573 2.1865
6.1765 -1.9580 2.1865
6.3999 -1.0147 2.1865
6.4802 -0.0486 2.1865
6.4155 0.9188 2.1865
6.2071 1.8657 2.1865
5.8598 2.7711 2.1865
5.3812 3.6145 2.1865
4.7821 4.3771 2.1865
4.3599 5.3932 2.3389
3.5068 5.9835 2.3389
2.5750 6.4399 2.3389
1.5855 6.7522 2.3389
0.5605 6.9132 2.3389
-0.4770 6.9195 2.3389
-2.4971 6.4706 2.3389
-1.5039 6.7708 2.3389
-3.4343 6.0254 2.3389
-5.0585 4.7436 2.3389
-4.2945 5.4455 2.3389
-5.8259 2.8416 2.1865
-6.1842 1.9406 2.1865
-5.7092 3.9357 2.3389
-6.4040 0.9962 2.1865
-6.4118 -0.9374 2.1865
-6.1997 -1.8833 2.1865
-6.4804 0.0297 2.1865
-5.7414 -3.8809 2.3389
-3.4857 -5.9883 2.3389
-4.3403 -5.4015 2.3389
-5.8489 -2.7869 2.1865
-0.5391 -6.9074 2.3389
0.4975 -6.9105 2.3389
-1.5636 -6.7497 2.3389
-2.5532 -6.4411 2.3389
2.5143 -6.4563 2.3389
3.4495 -6.0091 2.3389
1.5229 -6.7590 2.3389
5.3453 -3.6603 2.1865
4.7391 -4.4165 2.1865
5.8320 -2.8221 2.1865
6.4060 -0.9760 2.1865
6.4804 -0.0094 2.1865
5.8429 2.8065 2.1865
-5.0978 -4.6938 2.3389
6.1957 1.9033 2.1865
5.3592 3.6470 2.1865
4.3076 -5.4275 2.3389
4.3272 5.4195 2.3389
6.1882 -1.9206 2.1865
2.5360 6.4554 2.3389
1.5447 6.7616 2.3389
3.4705 6.0046 2.3389
4.7555 4.4059 2.1865
0.5187 6.9165 2.3389
-0.5189 6.9165 2.3389
